-7.791191101074218750e+00 -5.624795913696289062e+00 2.740619850158691406e+01
-9.449583053588867188e+00 -5.664897441864013672e+00 2.547384452819824219e+01
4.253404617309570312e+00 -4.556542396545410156e+00 1.989342880249023438e+01
8.905950188636779785e-01 -6.080614328384399414e-01 1.289827251434326172e+01
-5.691896915435791016e+00 -1.189670562744140625e+00 1.495992851257324219e+01
-7.453568458557128906e+00 -2.247122049331665039e+00 2.578664588928222656e+01
-3.386819601058959961e+00 1.426934123039245605e+00 1.203438377380371094e+01
-7.830559730529785156e+00 -9.077155590057373047e-01 2.541603660583496094e+01
-8.918631553649902344e+00 -4.757414340972900391e+00 2.555133056640625000e+01
-7.100977420806884766e+00 -4.182410240173339844e+00 2.736156272888183594e+01
3.456410169601440430e+00 -4.256410121917724609e+00 2.153846168518066406e+01
-3.654676198959350586e+00 1.283453226089477539e+00 1.208633136749267578e+01
-7.055016040802001953e+00 -3.948220014572143555e+00 2.718446540832519531e+01
-9.392366409301757812e+00 -6.216794013977050781e+00 2.564885520935058594e+01
-6.105930328369140625e+00 -1.948392987251281738e+00 1.521050262451171875e+01
-9.098765373229980469e+00 -6.333333492279052734e+00 2.592592620849609375e+01
4.079515933990478516e-01 5.324113965034484863e-01 1.452031135559082031e+01
-3.049853324890136719e+00 -6.099706888198852539e-01 1.970674514770507812e+01
-2.638019561767578125e+00 -2.787482500076293945e+00 1.569360065460205078e+01
-6.501216411590576172e+00 -2.893754959106445312e+00 2.725060844421386719e+01
-1.450399041175842285e+00 -1.413911104202270508e+00 1.915621376037597656e+01
-6.112115859985351562e+00 -2.386980056762695312e-01 1.518987369537353516e+01
4.050505161285400391e+00 -5.080808162689208984e+00 2.121212196350097656e+01
8.916218280792236328e-01 -3.382013738155364990e-01 1.291314411163330078e+01
-6.402555942535400391e+00 -2.287539958953857422e+00 2.683706092834472656e+01
-8.313725471496582031e+00 -1.460030198097229004e+00 2.533936691284179688e+01
-1.822968721389770508e+00 -3.566046237945556641e+00 1.525192928314208984e+01
-7.754874825477600098e-01 -1.185515284538269043e+00 1.871866226196289062e+01
3.257294416427612305e+00 -4.403182983398437500e+00 2.228116798400878906e+01
-2.284360170364379883e+00 4.265402853488922119e-01 1.990521240234375000e+01
-4.126091957092285156e+00 4.314470291137695312e-01 1.276110935211181641e+01
-7.716405391693115234e+00 -2.242374271154403687e-01 2.769991683959960938e+01
-3.519044160842895508e+00 8.782673478126525879e-01 1.254667663574218750e+01
9.460509419441223145e-01 6.145878434181213379e-01 1.450151062011718750e+01
-2.728904962539672852e+00 -6.223818063735961914e-01 2.010771942138671875e+01
-7.835990905761718750e+00 -1.810174584388732910e+00 2.551252937316894531e+01
-5.783393383026123047e+00 -2.671480178833007812e-01 1.516245460510253906e+01
-9.871064186096191406e+00 -4.809595108032226562e+00 2.518740653991699219e+01
-7.071483612060546875e+00 -1.488086104393005371e+00 2.582628822326660156e+01
-7.499613761901855469e+00 -2.878764390945434570e+00 2.594594573974609375e+01
-9.397023916244506836e-02 -9.209083914756774902e-01 1.315583419799804688e+01
-2.631626605987548828e+00 -3.820570945739746094e+00 1.522428607940673828e+01
-3.062857151031494141e+00 2.102857083082199097e-01 1.920000076293945312e+01
-6.292617321014404297e+00 -1.267114043235778809e+00 1.503355693817138672e+01
-1.976923108100891113e+00 -3.269230842590332031e+00 1.615384674072265625e+01
-3.586931943893432617e+00 7.630491852760314941e-01 1.261734867095947266e+01
-5.774164199829101562e+00 2.168021723628044128e-02 1.517615222930908203e+01
-1.967365980148315430e+00 -6.620046496391296387e-01 1.958041954040527344e+01
-3.541030168533325195e+00 1.426643013954162598e+00 1.193605709075927734e+01
-3.379061460494995117e+00 1.334295988082885742e+00 1.212996387481689453e+01
6.800618022680282593e-02 -1.069551825523376465e+00 1.298299884796142578e+01
-2.926187038421630859e+00 -2.670427799224853516e+00 1.579689693450927734e+01
-7.652173995971679688e+00 -2.062547683715820312e+00 2.562929153442382812e+01
-9.148119926452636719e+00 -6.053722381591796875e+00 2.578664588928222656e+01
1.913580298423767090e-01 -1.462962985038757324e+00 1.296296310424804688e+01
-6.397456169128417969e+00 -2.073132038116455078e+00 2.670906257629394531e+01
-7.445008307695388794e-02 9.407783150672912598e-01 1.421319770812988281e+01
-9.689291000366210938e+00 -5.586727142333984375e+00 2.533936691284179688e+01
-6.834355831146240234e+00 -7.239263653755187988e-01 2.576687049865722656e+01
4.798121929168701172e+00 -3.953051567077636719e+00 1.971830940246582031e+01
-6.068049907684326172e+00 -2.482987642288208008e+00 2.788381767272949219e+01
-3.521674156188964844e+00 8.669655919075012207e-01 1.255605411529541016e+01
-3.065026283264160156e+00 -4.217926263809204102e-01 1.968365478515625000e+01
-5.556780695915222168e-01 -1.631753087043762207e+00 1.852260208129882812e+01
-1.400457620620727539e+00 -3.203661441802978516e-01 1.922196769714355469e+01
7.773027420043945312e-01 -1.324523925781250000e+00 1.305868625640869141e+01
-9.785624146461486816e-01 -1.109709963202476501e-01 2.118537139892578125e+01
3.698647737503051758e+00 -4.749516963958740234e+00 2.163554382324218750e+01
-2.817910432815551758e+00 -4.489552378654479980e-01 2.005970191955566406e+01
4.580796241760253906e+00 -4.000000000000000000e+00 1.967213058471679688e+01
1.131513595581054688e+00 -1.806451559066772461e+00 1.389578151702880859e+01
1.102739691734313965e+00 2.054794505238533020e-02 1.438356208801269531e+01
-5.738276004791259766e+00 -9.933005571365356445e-01 1.500669956207275391e+01
-6.116163730621337891e+00 -9.725348949432373047e-01 1.512832069396972656e+01
-7.072961330413818359e+00 -4.600858211517333984e+00 2.884120178222656250e+01
-6.173795700073242188e+00 -2.326879739761352539e+00 1.512832069396972656e+01
7.382492423057556152e-01 4.760672748088836670e-01 1.448900413513183594e+01
-1.966220140457153320e+00 -8.666278123855590820e-01 1.956901550292968750e+01
-3.198834657669067383e+00 1.544064044952392578e+00 1.223598003387451172e+01
-6.058876037597656250e+00 -2.790365695953369141e+00 1.498661899566650391e+01
-2.560380697250366211e+00 -6.377156376838684082e-01 1.998810195922851562e+01
-1.693464398384094238e+00 -3.053788244724273682e-01 1.943319892883300781e+01
8.460053801536560059e-01 -8.830567598342895508e-01 1.296796607971191406e+01
8.479690551757812500e-01 -8.355899453163146973e-01 1.299806594848632812e+01
-1.337883949279785156e+00 -1.119453907012939453e+00 1.911262893676757812e+01
-6.312673568725585938e+00 -6.142460703849792480e-01 1.554116535186767578e+01
-5.593784451484680176e-01 -3.640399575233459473e-01 1.864594841003417969e+01
-1.600000023841857910e+00 4.645161330699920654e-01 2.167741966247558594e+01
3.387862682342529297e+00 -4.548812866210937500e+00 2.216358757019042969e+01
-7.551515102386474609e+00 -4.727272689342498779e-01 2.545454597473144531e+01
-9.575849533081054688e+00 -5.397736072540283203e+00 2.535848999023437500e+01
2.221598863601684570e+00 -2.460963010787963867e+00 1.570827484130859375e+01
-3.883609533309936523e+00 8.427255749702453613e-01 1.237569046020507812e+01
-6.249380588531494141e+00 -2.761354207992553711e+00 2.774566459655761719e+01
7.109737396240234375e-01 -1.267387986183166504e+00 1.298299884796142578e+01
-7.783439636230468750e+00 -4.980891704559326172e+00 2.675159263610839844e+01
-5.193370342254638672e+00 -1.399631649255752563e-01 1.546961307525634766e+01
-8.705321311950683594e+00 -6.773629665374755859e+00 2.668784713745117188e+01
-6.498748779296875000e+00 -3.376146793365478516e+00 2.802335357666015625e+01
-5.975133419036865234e+00 -1.712255716323852539e+00 1.492007064819335938e+01
7.548906803131103516e-01 -2.516302168369293213e-01 1.288837718963623047e+01
-1.742331266403198242e+00 -3.820040941238403320e+00 1.717791366577148438e+01
-8.946058273315429688e+00 5.892116069793701172e+00 3.485477066040039062e+01
3.283422470092773438e+00 -4.566844940185546875e+00 2.245989227294921875e+01
1.264214038848876953e+00 -1.438127040863037109e+00 1.404682254791259766e+01
-6.141633033752441406e+00 -6.856111884117126465e-01 1.515561580657958984e+01
-8.292201042175292969e+00 -2.369200438261032104e-01 3.316880416870117188e+01
-3.139427423477172852e+00 -3.331486701965332031e+00 1.551246547698974609e+01
5.344609022140502930e-01 1.285412311553955078e-01 1.420718860626220703e+01
-7.273846149444580078e+00 -2.006153821945190430e+00 2.584615325927734375e+01
3.797739505767822266e+00 -3.816775798797607422e+00 1.998810195922851562e+01
-8.391516685485839844e+00 -6.799347400665283203e+00 2.740619850158691406e+01
-3.824915885925292969e+00 6.883651614189147949e-01 1.257014560699462891e+01
-9.974231719970703125e+00 6.358770847320556641e+00 3.330029678344726562e+01
-2.967622518539428711e+00 -3.219241380691528320e+00 1.554116535186767578e+01
1.033655762672424316e+00 -4.394584000110626221e-01 1.299806594848632812e+01
-6.355072498321533203e+00 -3.260869681835174561e-01 1.521739101409912109e+01
-5.765400886535644531e+00 -1.282700419425964355e+00 2.835443115234375000e+01
-3.312629461288452148e-02 6.559005975723266602e-01 1.391304302215576172e+01
-5.793972015380859375e+00 -2.324786424636840820e+00 1.511470985412597656e+01
-8.565656661987304688e+00 -5.557109355926513672e+00 2.610722541809082031e+01
-6.986089706420898438e+00 -1.792890310287475586e+00 2.596599769592285156e+01
-6.103167533874511719e+00 7.963801175355911255e-02 1.520361995697021484e+01
-7.759197354316711426e-01 -1.007803797721862793e+00 1.872909736633300781e+01
-7.361419200897216797e-01 -1.889135241508483887e+00 1.862527656555175781e+01
-6.823161125183105469e+00 -2.241001605987548828e+00 2.629108047485351562e+01
-2.633100271224975586e+00 -2.856876373291015625e+00 1.566433525085449219e+01
3.309888392686843872e-02 6.553578972816467285e-01 1.390153121948242188e+01
-8.606811523437500000e+00 -5.461300373077392578e+00 2.600619125366210938e+01
-6.645011425018310547e+00 -1.051817536354064941e+00 2.598607826232910156e+01
7.014613747596740723e-01 -1.877244234085083008e+00 1.402922725677490234e+01
-3.434285640716552734e+00 1.411428570747375488e+00 1.200000000000000000e+01
1.312239766120910645e+00 -1.885095715522766113e+00 1.398834323883056641e+01
-5.570585727691650391e+00 -6.028143167495727539e-01 1.525192928314208984e+01
9.958779811859130859e-01 -1.694971203804016113e+00 1.384995841979980469e+01
-1.992805719375610352e+00 -3.805755376815795898e+00 1.510791397094726562e+01
-4.319559335708618164e-01 -8.550963997840881348e-01 1.851239585876464844e+01
3.774718284606933594e+00 -4.475594520568847656e+00 2.102628326416015625e+01
-3.889469861984252930e+00 6.751306653022766113e-01 1.254667663574218750e+01
-5.897783756256103516e+00 -1.990049719810485840e+00 1.519674396514892578e+01
-6.967943668365478516e+00 -2.514464378356933594e+00 2.627052307128906250e+01
-7.854765415191650391e+00 -1.077155828475952148e+00 2.541603660583496094e+01
-5.626134395599365234e+00 -3.121597170829772949e-01 1.524500942230224609e+01
-8.806106567382812500e+00 -4.873282432556152344e+00 2.564885520935058594e+01
-6.287024497985839844e+00 -5.355341434478759766e-01 1.540577697753906250e+01
-5.946966171264648438e+00 -2.854831457138061523e+00 1.510112380981445312e+01
-7.727890968322753906e+00 -3.023431599140167236e-01 2.539682579040527344e+01
-2.617127418518066406e+00 -3.806071519851684570e+00 1.522428607940673828e+01
9.610604643821716309e-01 -1.835956931114196777e+00 1.391880702972412109e+01
-2.021632194519042969e+00 -3.091445446014404297e+00 1.651917457580566406e+01
-8.840790748596191406e+00 6.043704509735107422e+00 3.496358108520507812e+01
-2.463266372680664062e+00 -2.657931566238403320e+00 1.572297573089599609e+01
2.038609981536865234e-01 -3.891891837120056152e-01 1.297297286987304688e+01
-3.039479732513427734e+00 -3.113794803619384766e+00 1.560613059997558594e+01
-5.886672019958496094e+00 -1.162011146545410156e+00 2.681564331054687500e+01
-2.891454935073852539e+00 2.678983807563781738e-01 1.939953804016113281e+01
6.645962595939636230e-01 -1.472049713134765625e+00 1.304347801208496094e+01
3.277928233146667480e-01 -1.669887900352478027e-01 1.298801708221435547e+01
1.051817461848258972e-01 -7.486465573310852051e-01 1.299303913116455078e+01
-6.571657180786132812e+00 -2.677341938018798828e+00 2.690152168273925781e+01
-3.271659374237060547e+00 1.215859055519104004e+00 1.233480167388916016e+01
-2.121100902557373047e+00 -3.177981615066528320e+00 1.541284370422363281e+01
-2.012726306915283203e+00 -3.124816417694091797e+00 1.644640159606933594e+01
-8.741641044616699219e+00 -4.267477035522460938e+00 2.553191566467285156e+01
-5.997332096099853516e+00 -1.785682559013366699e+00 1.493997287750244141e+01
3.409326314926147461e+00 -4.321243286132812500e+00 2.176165771484375000e+01
-9.654618263244628906e+00 6.120481967926025391e+00 3.373493957519531250e+01
1.929313987493515015e-01 2.062370032072067261e-01 1.397089385986328125e+01
7.456178069114685059e-01 2.257374972105026245e-01 1.436511325836181641e+01
-2.102351427078247070e+00 -2.987551927566528320e+00 1.549100971221923828e+01
4.466539323329925537e-01 -9.728489518165588379e-01 1.284894847869873047e+01
-5.881578922271728516e+00 -1.960526347160339355e+00 2.763157844543457031e+01
4.142179965972900391e+00 -3.289099454879760742e+00 1.990521240234375000e+01
3.847715854644775391e+00 -4.802030563354492188e+00 2.131979751586914062e+01
-2.352941185235977173e-01 -1.252782225608825684e+00 1.335453128814697266e+01
2.618181705474853516e+00 -2.265564680099487305e+00 1.851239585876464844e+01
-7.561643600463867188e+00 -1.522070050239562988e+00 2.557077598571777344e+01
1.338377475738525391e+00 -1.338377475738525391e+00 1.412358093261718750e+01
-7.140845298767089844e+00 -6.338028311729431152e-01 2.957746505737304688e+01
-2.041780233383178711e+00 -3.480472326278686523e+00 1.525885581970214844e+01
-4.120836734771728516e+00 2.664601206779479980e-01 1.301316833496093750e+01
-7.147892951965332031e+00 -1.385440587997436523e+00 2.574712562561035156e+01
-1.762399077415466309e+00 -1.393310308456420898e+00 1.937716293334960938e+01
-1.054652309417724609e+01 6.346718788146972656e+00 3.290891265869140625e+01
7.272727489471435547e-01 -4.583651721477508545e-01 1.283422470092773438e+01
-2.424242496490478516e+00 -2.767365932464599609e+00 1.566433525085449219e+01
-8.704096794128417969e+00 -3.945371866226196289e+00 2.549317169189453125e+01
-1.204982995986938477e+00 -9.875424504280090332e-01 1.902604675292968750e+01
-5.661984443664550781e+00 -6.742184162139892578e-01 1.522428607940673828e+01
-1.020892143249511719e+00 -2.800677716732025146e-01 1.897233200073242188e+01
-7.277378082275390625e+00 -4.079936027526855469e+00 2.685851287841796875e+01
-9.261444091796875000e+00 6.201424121856689453e+00 3.418107986450195312e+01
1.129493236541748047e+00 5.612819194793701172e-01 1.455175399780273438e+01
-2.618451595306396484e+00 -3.033843278884887695e+00 1.557719039916992188e+01
-3.382823944091796875e+00 1.263464331626892090e+00 1.222707462310791016e+01
4.153362751007080078e+00 -5.199245929718017578e+00 2.111879348754882812e+01
8.040200918912887573e-02 -1.317355990409851074e+00 1.298801708221435547e+01
-5.968147754669189453e+00 -2.373847484588623047e+00 2.816429138183593750e+01
-8.390395164489746094e+00 -5.044151782989501953e+00 2.602633666992187500e+01
4.102564156055450439e-01 -3.980099558830261230e-01 1.285878276824951172e+01
4.705325603485107422e+00 -3.531360864639282227e+00 1.988165664672851562e+01
-5.763751029968261719e+00 -4.833182990550994873e-01 1.514878273010253906e+01
-5.706041336059570312e+00 -3.823264241218566895e-01 1.514878273010253906e+01
-1.835548996925354004e+00 -3.600196838378906250e+00 1.654357528686523438e+01
3.518518507480621338e-01 -1.524691343307495117e+00 1.296296310424804688e+01
-7.894655227661132812e+00 -3.928737401962280273e+00 2.602633666992187500e+01
-6.616639614105224609e+00 -3.275693416595458984e+00 2.740619850158691406e+01
-3.194181919097900391e+00 1.343999981880187988e+00 1.221818161010742188e+01
-6.346153736114501953e+00 -2.269230842590332031e+00 2.692307662963867188e+01
8.997554779052734375e-01 -2.480195522308349609e+00 1.643031692504882812e+01
4.338498115539550781e+00 -3.060786724090576172e+00 2.002383804321289062e+01
7.269722968339920044e-02 6.542751193046569824e-01 1.387856292724609375e+01
7.057815790176391602e-01 3.220556676387786865e-01 1.438972187042236328e+01
3.445026159286499023e+00 -4.534031391143798828e+00 2.198952865600585938e+01
-8.340561866760253906e+00 -6.387148380279541016e+00 2.698795127868652344e+01
3.665488719940185547e+00 -3.382803201675415039e+00 1.978798675537109375e+01
1.520860195159912109e+00 -1.658494591712951660e+00 1.445161247253417969e+01
1.138576745986938477e+00 -1.964211344718933105e+00 1.398252201080322266e+01
-8.637813568115234375e+00 -3.875474452972412109e+00 2.551252937316894531e+01
-7.104440331459045410e-01 1.000625360757112503e-02 2.101313400268554688e+01
-2.953142881393432617e+00 3.565714359283447266e-01 1.920000076293945312e+01
1.063583850860595703e+00 -1.803468227386474609e+00 1.387283229827880859e+01
-3.699455499649047852e+00 1.155716896057128906e+00 1.219600772857666016e+01
-6.467028617858886719e+00 -8.813033103942871094e-01 2.606671905517578125e+01
-2.962686538696289062e+00 -2.947761297225952148e+00 1.567164134979248047e+01
-1.167420864105224609e+00 -9.140271544456481934e-01 1.900452423095703125e+01
-1.874125838279724121e+00 9.324009530246257782e-03 1.958041954040527344e+01
4.844768047332763672e-01 -1.134534358978271484e+00 1.287849712371826172e+01
-2.008097171783447266e+00 -3.807467460632324219e+00 1.511470985412597656e+01
1.644349694252014160e+00 -1.617057561874389648e+00 1.432835865020751953e+01
6.663804054260253906e-01 2.679261565208435059e-01 1.442679214477539062e+01
-8.230302810668945312e+00 -2.533333301544189453e+00 2.545454597473144531e+01
-7.068619728088378906e+00 -1.764070987701416016e+00 2.590593719482421875e+01
-3.812080621719360352e+00 7.337807416915893555e-01 1.252796459197998047e+01
1.651391863822937012e+00 -1.432119965553283691e+00 1.438972187042236328e+01
3.872286081314086914e+00 -4.934865951538085938e+00 2.145593833923339844e+01
-9.629069328308105469e+00 -5.922785758972167969e+00 2.543527603149414062e+01
-8.361990928649902344e+00 -1.725490212440490723e+00 2.533936691284179688e+01
9.167353510856628418e-01 -1.668590307235717773e+00 1.384995841979980469e+01
9.732028841972351074e-01 6.805614568293094635e-03 1.429179096221923828e+01
-5.827908992767333984e+00 -1.861792206764221191e+00 1.497993755340576172e+01
-1.020846486091613770e+00 -3.032217361032962799e-02 2.122552108764648438e+01
-1.877934299409389496e-02 -6.823161244392395020e-01 1.314554023742675781e+01
-5.896125316619873047e+00 -2.044517755508422852e+00 2.769991683959960938e+01
-6.280254840850830078e+00 -1.872611522674560547e+00 2.675159263610839844e+01
1.033255934715270996e+00 -5.259087681770324707e-01 1.299303913116455078e+01
-3.539516448974609375e+00 1.287621855735778809e+00 1.212558650970458984e+01
-4.863523542881011963e-01 -1.488833725452423096e-01 2.084367179870605469e+01
-7.240223407745361328e+00 -3.945730209350585938e+00 2.681564331054687500e+01
3.099573776125907898e-02 -1.394808173179626465e+00 1.301821041107177734e+01
-7.823064804077148438e+00 -4.789889335632324219e+00 2.654028511047363281e+01
3.971920967102050781e+00 -5.095086097717285156e+00 2.144224548339843750e+01
-7.818181991577148438e+00 -1.321212172508239746e+00 2.545454597473144531e+01
1.240677952766418457e+00 -1.050847411155700684e+00 1.423728847503662109e+01
-5.970149040222167969e+00 1.085481718182563782e-01 1.519674396514892578e+01
-7.353658676147460938e+00 -1.207317113876342773e+00 2.560975646972656250e+01
-6.068474769592285156e+00 -1.714539766311645508e+00 1.493997287750244141e+01
-1.498850584030151367e+00 -1.379310339689254761e-01 1.931034469604492188e+01
-2.189473628997802734e+00 -3.287871837615966797e+00 1.537757396697998047e+01
-5.586732387542724609e+00 -8.103989362716674805e-01 1.506051063537597656e+01
4.489411830902099609e+00 -3.736470699310302734e+00 1.976470565795898438e+01
-1.084230542182922363e+00 1.317289471626281738e-01 2.127929115295410156e+01
3.020785331726074219e+00 -2.540415763854980469e+00 1.939953804016113281e+01
-8.420401573181152344e+00 -4.908809661865234375e+00 2.596599769592285156e+01
-1.337883949279785156e+00 -1.028441429138183594e+00 1.911262893676757812e+01
3.759562730789184570e+00 -4.031572341918945312e+00 2.040072822570800781e+01
-5.201793670654296875e+00 -7.892376929521560669e-02 1.506726455688476562e+01
-8.128824234008789062e+00 -5.990338325500488281e+00 2.705314064025878906e+01
-2.037558794021606445e+00 2.910798192024230957e-01 1.971830940246582031e+01
-8.455384254455566406e+00 -4.689230918884277344e+00 2.584615325927734375e+01
-7.222999095916748047e+00 -2.672882556915283203e+00 2.610722541809082031e+01
-8.976409912109375000e+00 6.416410446166992188e+00 3.446154022216796875e+01
3.717171669006347656e+00 -5.441077232360839844e+00 2.262626266479492188e+01
-7.856677532196044922e+00 -5.719869613647460938e+00 2.736156272888183594e+01
-6.047985553741455078e+00 -1.962879180908203125e+00 1.521050262451171875e+01
5.750798806548118591e-02 -5.303514599800109863e-01 1.341853046417236328e+01
-7.904837608337402344e+00 -5.113401889801025391e+00 2.664551925659179688e+01
-6.171248912811279297e+00 -1.018067598342895508e+00 2.639434432983398438e+01
-7.861198902130126953e+00 -4.782334327697753906e+00 2.649842262268066406e+01
-1.779504656791687012e+00 -3.737736701965332031e+00 1.631860160827636719e+01
4.928112030029296875e+00 -4.180011749267578125e+00 1.963763809204101562e+01
-2.349056720733642578e+00 -1.028301835060119629e+00 1.981132125854492188e+01
-2.169614553451538086e+00 -3.620861768722534180e+00 1.523809528350830078e+01
-6.161086082458496094e+00 7.239819038659334183e-03 1.520361995697021484e+01
-6.970684051513671875e+00 -3.921824216842651367e+00 2.736156272888183594e+01
-6.308887004852294922e+00 -1.035375356674194336e+00 2.899050903320312500e+01
-3.477749109268188477e+00 1.135711669921875000e+00 1.235748481750488281e+01
1.700787395238876343e-01 -9.448818862438201904e-02 1.322834682464599609e+01
7.460501194000244141e-01 -1.140655159950256348e+00 1.294797706604003906e+01
-5.660377442836761475e-02 -6.855345964431762695e-01 1.320754718780517578e+01
7.320261597633361816e-01 -9.903883337974548340e-01 1.291810798645019531e+01
3.027026951313018799e-01 -1.587644815444946289e+00 1.297297286987304688e+01
-1.864347815513610840e+00 -1.011014461517333984e+00 1.947826004028320312e+01
-3.959075450897216797e+00 5.032209157943725586e-01 1.273209571838378906e+01
-3.691842794418334961e+00 6.465256810188293457e-01 1.268882179260253906e+01
-1.836591482162475586e+00 -3.617042541503906250e+00 1.684210586547851562e+01
1.503582000732421875e+00 -1.827222943305969238e+00 1.415929222106933594e+01
1.194498986005783081e-01 -1.823182702064514160e-01 1.320235729217529297e+01
-7.869494438171386719e+00 -5.781403064727783203e+00 2.740619850158691406e+01
3.484268903732299805e+00 -3.760641574859619141e+00 2.072794532775878906e+01
9.389817118644714355e-01 -9.638554453849792480e-01 1.305868625640869141e+01
3.303994655609130859e+00 -4.798916816711425781e+00 2.274881553649902344e+01
-3.104872107505798340e-01 9.578860402107238770e-01 1.387283229827880859e+01
-5.766350746154785156e+00 -3.536310195922851562e-01 1.515561580657958984e+01
-2.409005641937255859e+00 -2.574108839035034180e+00 1.575984954833984375e+01
8.911564350128173828e-01 8.843537420034408569e-02 1.428571414947509766e+01
-7.553174972534179688e+00 -2.191277742385864258e+00 2.570772743225097656e+01
-3.960044384002685547e+00 7.517573237419128418e-01 1.243063259124755859e+01
-7.962848186492919922e+00 -4.024767875671386719e+00 2.600619125366210938e+01
-1.912775754928588867e+00 -3.374037981033325195e+00 1.723961067199707031e+01
-7.139282703399658203e+00 -4.630525588989257812e+00 2.802335357666015625e+01
1.564474821090698242e+00 -1.660119533538818359e+00 1.434671211242675781e+01
1.906225979328155518e-01 -9.777094721794128418e-01 1.291314411163330078e+01
-6.279645919799804688e+00 3.327433764934539795e-01 1.486725616455078125e+01
-2.836295604705810547e+00 -2.806361198425292969e+00 1.571562194824218750e+01
-8.452589988708496094e+00 -6.361752986907958984e+00 2.677290916442871094e+01
-6.173795700073242188e+00 -2.283656120300292969e+00 1.512832069396972656e+01
-5.534545421600341797e+00 -2.254545390605926514e-01 1.527272701263427734e+01
-1.855477809906005859e+00 1.585081517696380615e-01 1.958041954040527344e+01
-1.709994196891784668e+00 -6.192951798439025879e-01 1.941074562072753906e+01
-7.869868278503417969e+00 -3.879163503646850586e+00 2.602633666992187500e+01
-8.749214410781860352e-01 -5.028283968567848206e-02 2.111879348754882812e+01
3.453013658523559570e+00 -4.406999588012695312e+00 2.177576065063476562e+01
-6.602342128753662109e+00 -2.323185056447982788e-01 1.573770523071289062e+01
-2.098823547363281250e+00 2.729411721229553223e-01 1.976470565795898438e+01
4.602991938591003418e-01 -1.172228574752807617e+00 1.288837718963623047e+01
8.458434343338012695e-01 -1.685230016708374023e+00 1.355932235717773438e+01
-3.635552167892456055e+00 8.627742528915405273e-01 1.249535179138183594e+01
6.947549581527709961e-01 1.857265681028366089e-01 1.444540023803710938e+01
-7.192009091377258301e-01 -1.482796907424926758e+00 1.864594841003417969e+01
-5.838520526885986328e+00 -4.835363030433654785e-01 1.515561580657958984e+01
-5.587647438049316406e+00 -2.085376977920532227e+00 1.525885581970214844e+01
-2.346276760101318359e+00 -3.457286357879638672e+00 1.534947490692138672e+01
-3.442026376724243164e+00 1.421334266662597656e+00 1.198715686798095703e+01
5.521942973136901855e-01 2.795057594776153564e-01 1.431614780426025391e+01
-5.956882476806640625e+00 -1.154228806495666504e+00 2.786069679260253906e+01
-7.799848556518554688e+00 -1.467778563499450684e+00 2.547384452819824219e+01
-2.393815279006958008e+00 -3.630741357803344727e+00 1.527967262268066406e+01
-7.055016040802001953e+00 -3.974110126495361328e+00 2.718446540832519531e+01
-6.546623706817626953e+00 -2.765273332595825195e+00 2.700964546203613281e+01
8.408132195472717285e-01 -6.566935181617736816e-01 1.288837718963623047e+01
-8.294930458068847656e+00 -4.239631175994873047e+00 2.580645179748535156e+01
5.919145941734313965e-01 -5.186880230903625488e-01 1.281464576721191406e+01
-6.204524993896484375e+00 -6.515837460756301880e-02 1.520361995697021484e+01
-2.578995466232299805e+00 -3.557990789413452148e+00 1.534246540069580078e+01
-8.532498359680175781e+00 -5.901331424713134766e+00 2.631166839599609375e+01
-3.446064233779907227e+00 1.230320692062377930e+00 1.224489784240722656e+01
1.472774386405944824e+00 -1.334485769271850586e+00 1.452031135559082031e+01
3.738031387329101562e-01 -7.659900188446044922e-01 1.286863231658935547e+01
-1.204982995986938477e+00 -1.060022592544555664e+00 1.902604675292968750e+01
-8.120468258857727051e-01 -1.258226394653320312e+00 1.873954200744628906e+01
-3.006463527679443359e+00 -3.287165164947509766e+00 1.551246547698974609e+01
-3.175973653793334961e+00 -2.830595970153808594e+00 1.576724529266357422e+01
-8.732778549194335938e+00 -3.694171190261840820e+00 2.543527603149414062e+01
-8.714205622673034668e-01 -2.784952223300933838e-01 1.886580657958984375e+01
-8.784556388854980469e+00 -5.695753097534179688e+00 2.594594573974609375e+01
-9.263803482055664062e+00 -6.269938468933105469e+00 2.576687049865722656e+01
-9.638361930847167969e+00 6.537462711334228516e+00 3.356643295288085938e+01
2.576646327972412109e+00 -1.708909749984741211e+00 1.859435462951660156e+01
1.008219122886657715e+00 -9.581213593482971191e-01 1.315068531036376953e+01
-2.163934469223022461e+00 -1.133489489555358887e+00 1.967213058471679688e+01
-2.683544397354125977e+00 -3.884267568588256836e+00 1.518987369537353516e+01
-2.940580368041992188e+00 -3.353293418884277344e+00 1.547673892974853516e+01
-5.497700214385986328e+00 -2.053357839584350586e+00 1.545538139343261719e+01
-5.725888252258300781e+00 -1.989847660064697266e+00 2.842639541625976562e+01
-2.025316506624221802e-01 2.417313158512115479e-01 1.371988582611083984e+01
6.078280806541442871e-01 -7.797390818595886230e-01 1.289332294464111328e+01
-7.799848556518554688e+00 -1.540561079978942871e+00 2.547384452819824219e+01
-8.266263008117675781e+00 -2.335854768753051758e+00 2.541603660583496094e+01
1.966101676225662231e-01 7.389830350875854492e-01 1.423728847503662109e+01
-1.272949874401092529e-01 -5.385556817054748535e-01 2.056303596496582031e+01
-7.654853820800781250e+00 -3.044684171676635742e+00 2.588597869873046875e+01
-2.942615270614624023e+00 -2.671684026718139648e+00 1.580432701110839844e+01
-1.727482676506042480e+00 -8.960738778114318848e-01 1.939953804016113281e+01
9.732028841972351074e-01 -6.805614568293094635e-03 1.429179096221923828e+01
-3.686774015426635742e+00 7.373548150062561035e-01 1.258898448944091797e+01
-5.927797794342041016e+00 -3.826714754104614258e-01 1.516245460510253906e+01
2.888974249362945557e-01 -1.223204016685485840e+00 1.290818309783935547e+01
4.107279777526855469e-01 -1.121839046478271484e+00 1.287356281280517578e+01
-2.287581712007522583e-01 3.464052379131317139e-01 1.372549057006835938e+01
-3.601268053054809570e+00 1.482212066650390625e+00 1.183515357971191406e+01
-8.341708779335021973e-01 9.045226126909255981e-02 2.110552787780761719e+01
3.694510698318481445e+00 -3.675417661666870117e+00 2.004773330688476562e+01
-6.481686830520629883e-01 -9.500554800033569336e-01 1.864594841003417969e+01
2.407407462596893311e-01 -6.481481194496154785e-01 1.296296310424804688e+01
-8.329689025878906250e+00 -6.984020233154296875e+00 2.825904083251953125e+01
-1.826187729835510254e+00 -9.177288413047790527e-01 1.946697616577148438e+01
-1.413911104202270508e+00 -1.176738858222961426e+00 1.915621376037597656e+01
9.843105077743530273e-01 -1.790256023406982422e+00 1.387283229827880859e+01
-2.283007621765136719e+00 2.936649024486541748e-01 1.989342880249023438e+01
-8.393240928649902344e+00 -4.460829257965087891e+00 2.580645179748535156e+01
2.017682552337646484e+00 -2.657980442047119141e+00 1.563517951965332031e+01
2.560354471206665039e+00 -1.763012170791625977e+00 1.860465049743652344e+01
4.336622238159179688e+00 -4.448055744171142578e+00 1.950086975097656250e+01
-8.920245170593261719e+00 -5.484662532806396484e+00 2.576687049865722656e+01
3.962174892425537109e+00 -3.319149017333984375e+00 1.985815620422363281e+01
-3.495456218719482422e+00 1.238822221755981445e+00 1.221374034881591797e+01
4.109134197235107422e+00 -3.198101997375488281e+00 1.992882537841796875e+01
-2.253388404846191406e+00 -5.185621976852416992e-01 1.979964637756347656e+01
-1.126126170158386230e+00 -1.594594597816467285e+00 1.891891860961914062e+01
-8.211640357971191406e+00 -1.874527573585510254e+00 2.539682579040527344e+01
3.739837408065795898e+00 -5.582655906677246094e+00 2.276422691345214844e+01
-7.672441005706787109e+00 -4.321259975433349609e+00 2.645669364929199219e+01
-1.686933994293212891e+00 4.243208169937133789e-01 2.173350524902343750e+01
-7.638618469238281250e+00 -3.826394975185394287e-01 2.976085090637207031e+01
-8.102952003479003906e+00 -1.998486042022705078e+00 2.543527603149414062e+01
-6.547730922698974609e+00 -1.640062570571899414e+00 2.629108047485351562e+01
-3.328781843185424805e+00 1.489040613174438477e+00 1.207330226898193359e+01
-3.007852077484130859e+00 -3.273902893066406250e+00 1.551963043212890625e+01
-3.986389398574829102e+00 5.141776800155639648e-01 1.270321369171142578e+01
-7.572815418243408203e+00 -2.718446552753448486e-01 2.718446540832519531e+01
3.688679218292236328e+00 -3.349056720733642578e+00 1.981132125854492188e+01
-9.583081245422363281e+00 -5.522658824920654297e+00 2.537764358520507812e+01
-8.902723312377929688e+00 -6.412451267242431641e+00 2.614785957336425781e+01
-1.546026349067687988e+00 -1.527730107307434082e+00 1.921097755432128906e+01
-2.432876825332641602e+00 -3.499543428421020508e+00 1.534246540069580078e+01
-8.250573158264160156e+00 -3.679144382476806641e+00 2.566844940185546875e+01
-3.515754640102386475e-01 1.067993402481079102e+00 1.393034839630126953e+01
4.714887142181396484e-01 -7.776502370834350586e-01 1.285878276824951172e+01
3.859111666679382324e-01 -4.226646125316619873e-01 1.286370563507080078e+01
1.172670841217041016e+00 -1.861697673797607422e+00 1.391304302215576172e+01
-5.749323844909667969e+00 -2.128043174743652344e+00 1.514878273010253906e+01
-6.041704654693603516e+00 -1.211242079734802246e+00 1.523118782043457031e+01
-1.433789968490600586e+00 -1.068493127822875977e+00 1.917808151245117188e+01
7.966036200523376465e-01 -1.296796649694442749e-01 1.296796607971191406e+01
8.225744366645812988e-01 -1.107073783874511719e+00 1.298801708221435547e+01
-3.350073814392089844e+00 1.140324950218200684e+00 1.240768051147460938e+01
-5.880888938903808594e+00 -1.415111064910888672e+00 1.493333339691162109e+01
-2.209165573120117188e+00 -8.178613185882568359e-01 1.974147987365722656e+01
3.250287473201751709e-01 -1.060942888259887695e+00 1.287849712371826172e+01
-6.837282657623291016e+00 -2.717219591140747070e+00 2.654028511047363281e+01
2.777777910232543945e-01 -1.524691343307495117e+00 1.296296310424804688e+01
1.433137059211730957e+00 -1.527333855628967285e+00 1.412952041625976562e+01
-2.510521411895751953e+00 -3.462031126022338867e+00 1.537053966522216797e+01
-5.374545574188232422e+00 -3.127272725105285645e-01 1.527272701263427734e+01
-4.460966587066650391e-01 -1.883519142866134644e-01 2.081784439086914062e+01
-6.968440055847167969e+00 -7.646528482437133789e-01 3.029756546020507812e+01
-5.026519894599914551e-01 6.854345202445983887e-01 1.370869064331054688e+01
-6.124777317047119141e+00 -2.759358406066894531e+00 1.497326183319091797e+01
-8.981366157531738281e+00 -6.422360420227050781e+00 2.608695602416992188e+01
-1.846989631652832031e+00 -3.527387857437133789e+00 1.521050262451171875e+01
7.658473253250122070e-01 6.554549336433410645e-01 1.448900413513183594e+01
-8.639756202697753906e+00 -4.252856254577636719e+00 2.559025192260742188e+01
-5.804587841033935547e+00 -2.161427259445190430e+00 2.854715347290039062e+01
1.193426012992858887e+00 -1.490096926689147949e+00 1.415929222106933594e+01
-1.439541578292846680e+00 -3.392550051212310791e-01 1.925501441955566406e+01
-6.361445903778076172e+00 -2.351807117462158203e+00 2.698795127868652344e+01
-6.552126884460449219e+00 -3.482902526855468750e+00 2.802335357666015625e+01
5.099846124649047852e-01 -1.210445523262023926e+00 1.290322589874267578e+01
1.094981312751770020e+00 -1.917876362800598145e+00 1.393612575531005859e+01
-5.249421596527099609e+00 -1.947246670722961426e+00 1.554835700988769531e+01
1.026490092277526855e+00 -1.860927104949951172e+00 1.390728473663330078e+01
-7.567059040069580078e+00 -3.927843093872070312e+00 2.635294151306152344e+01
-8.267755508422851562e+00 -6.569796085357666016e+00 2.742857170104980469e+01
2.745614051818847656e+00 -2.307017564773559570e+00 1.842105293273925781e+01
4.121356487274169922e+00 -3.055324316024780273e+00 1.998810195922851562e+01
-6.895913600921630859e+00 -1.393986105918884277e+00 2.590593719482421875e+01
-3.072410583496093750e+00 -3.541704893112182617e+00 1.539871692657470703e+01
1.439189195632934570e+00 -1.344594597816467285e+00 1.418918895721435547e+01
4.702002525329589844e+00 -3.740871667861938477e+00 1.978798675537109375e+01
-7.243589878082275391e+00 -4.089743614196777344e+00 2.692307662963867188e+01
1.304347872734069824e+00 -2.000000000000000000e+00 1.404682254791259766e+01
-9.867469787597656250e+00 -5.867469787597656250e+00 2.530120468139648438e+01
-3.266134977340698242e+00 1.502538084983825684e+00 1.218274116516113281e+01
-2.677918434143066406e+00 -2.677918434143066406e+00 1.575246143341064453e+01
1.141055941581726074e+00 -2.458628863096237183e-01 1.323877048492431641e+01
-6.346810340881347656e+00 -9.128481745719909668e-01 1.509433937072753906e+01
-2.519742965698242188e+00 -3.342516183853149414e+00 1.542699718475341797e+01
-7.204526901245117188e+00 -4.255456924438476562e+00 2.716249084472656250e+01
-5.884476661682128906e+00 -2.664259910583496094e+00 1.516245460510253906e+01
-2.381969213485717773e+00 -2.846975065767765045e-02 1.992882537841796875e+01
-1.881807684898376465e+00 -1.307068347930908203e+00 1.946697616577148438e+01
-8.377416610717773438e+00 -4.887857913970947266e+00 2.598607826232910156e+01
-3.560117244720458984e+00 1.120234608650207520e+00 1.231671524047851562e+01
1.132450342178344727e+00 -1.887417197227478027e+00 1.390728473663330078e+01
-2.651810646057128906e+00 -3.008356571197509766e+00 1.559888553619384766e+01
-9.431192398071289062e+00 -6.446483135223388672e+00 2.568807411193847656e+01
-7.300721645355224609e+00 -4.221331119537353516e+00 2.694466781616210938e+01
-1.905868649482727051e+00 -8.274258971214294434e-01 1.952353286743164062e+01
7.978353500366210938e-01 -1.144182443618774414e+00 1.298801708221435547e+01
1.082278490066528320e+00 -9.177215099334716797e-01 1.329113960266113281e+01
-2.843307495117187500e+00 -3.588853359222412109e+00 1.534947490692138672e+01
-3.278989553451538086e+00 -3.765786588191986084e-01 1.928817367553710938e+01
-1.862188816070556641e+00 -1.250723838806152344e+00 1.945570373535156250e+01
-1.398058295249938965e+00 -7.218732237815856934e-01 1.918903541564941406e+01
-6.523659229278564453e+00 -1.981072545051574707e+00 2.649842262268066406e+01
-8.633540153503417969e+00 -5.677018642425537109e+00 2.608695602416992188e+01
-7.531558990478515625e+00 -1.350570321083068848e+00 2.555133056640625000e+01
-7.063761234283447266e+00 -3.938660144805908203e+00 2.711864471435546875e+01
1.623779177665710449e+00 -1.718895912170410156e+00 1.426751613616943359e+01
4.188431739807128906e+00 -2.986284971237182617e+00 2.003577804565429688e+01
-8.242057800292968750e+00 -2.263237476348876953e+00 2.541603660583496094e+01
-8.689976692199707031e+00 -5.830613613128662109e+00 2.610722541809082031e+01
4.349157810211181641e-01 -7.779479622840881348e-01 1.286370563507080078e+01
-2.125926017761230469e+00 -2.881481409072875977e+00 1.555555534362792969e+01
-8.611582756042480469e+00 -5.325096607208251953e+00 2.594594573974609375e+01
1.269180774688720703e+00 -8.807975649833679199e-01 1.456436920166015625e+01
-7.263243675231933594e+00 -4.550937175750732422e+00 2.738386344909667969e+01
-8.673236846923828125e+00 -3.821076631546020508e+00 2.547384452819824219e+01
-7.143350601196289062e+00 -4.711571693420410156e+00 2.901554489135742188e+01
-8.469154357910156250e+00 -3.838537693023681641e+00 2.559025192260742188e+01
-8.206686973571777344e+00 -2.930091142654418945e+00 2.553191566467285156e+01
-7.470071792602539062e+00 -4.430965900421142578e+00 2.681564331054687500e+01
-6.167557716369628906e+00 -2.317290544509887695e+00 1.497326183319091797e+01
-7.193892955780029297e+00 -9.893130064010620117e-01 2.564885520935058594e+01
-5.959367752075195312e+00 -3.106094896793365479e-01 1.516930007934570312e+01
-9.773320198059082031e+00 5.921765327453613281e+00 3.370110321044921875e+01
8.605709671974182129e-02 2.316921800374984741e-01 1.390153121948242188e+01
-7.194290161132812500e+00 -3.616177558898925781e+00 2.664551925659179688e+01
-1.739478945732116699e+00 -3.887775659561157227e+00 1.683366775512695312e+01
-5.964753627777099609e+00 -1.518300920724868774e-01 1.518300914764404297e+01
-2.944729328155517578e+00 5.561253428459167480e-01 1.914529991149902344e+01
-2.002328395843505859e+00 -1.182770609855651855e+00 1.955762481689453125e+01
-9.596412777900695801e-01 -1.228699564933776855e+00 1.883408164978027344e+01
-5.512419700622558594e+00 -3.679852932691574097e-02 1.545538139343261719e+01
2.675496578216552734e+00 -1.527593851089477539e+00 1.854304695129394531e+01
3.573122501373291016e+00 -4.859025001525878906e+00 2.213438796997070312e+01
-7.153084754943847656e+00 -5.971058607101440430e-01 2.559025192260742188e+01
-7.752078533172607422e+00 -3.023431599140167236e-01 2.539682579040527344e+01
-4.924086928367614746e-01 8.600738644599914551e-01 1.378744316101074219e+01
-6.729559898376464844e+00 -6.666666865348815918e-01 2.641509437561035156e+01
-6.737490177154541016e+00 -8.991531729698181152e-01 2.586605072021484375e+01
-7.466666698455810547e+00 -4.587951660156250000e+00 2.698795127868652344e+01
-1.396463155746459961e+00 -9.035938382148742676e-01 1.916714286804199219e+01
5.952873080968856812e-02 6.945018768310546875e-01 1.389003753662109375e+01
-6.649874210357666016e+00 -3.721242666244506836e+00 2.821158599853515625e+01
5.552698969841003418e-01 3.907454907894134521e-01 1.439588642120361328e+01
5.587106943130493164e-01 -1.160399079322814941e+00 1.289332294464111328e+01
-6.782608509063720703e+00 -7.357859611511230469e-01 2.809364509582519531e+01
7.126258611679077148e-01 -1.332300543785095215e+00 1.301316833496093750e+01
3.904037475585937500e+00 -3.791691064834594727e+00 1.966061973571777344e+01
-8.026359558105468750e+00 -6.233937263488769531e+00 2.767710113525390625e+01
-1.933463811874389648e+00 -3.311154603958129883e+00 1.643835639953613281e+01
-7.919911146163940430e-01 -1.592880964279174805e+00 1.868743133544921875e+01
-7.385984659194946289e-01 -1.254727482795715332e+00 1.868743133544921875e+01
-1.402337253093719482e-01 1.061769604682922363e+00 1.402337265014648438e+01
-1.383734226226806641e+00 -4.581901431083679199e-02 1.924398612976074219e+01
-5.880000114440917969e+00 -2.173333406448364258e+00 2.800000000000000000e+01
-2.586691617965698242e+00 -2.661668300628662109e+00 1.574507999420166016e+01
1.270833373069763184e+00 -8.958333134651184082e-01 1.458333301544189453e+01
1.004698872566223145e+00 1.298590302467346191e-01 1.435284042358398438e+01
-2.627427816390991211e+00 1.412595659494400024e-01 1.977633857727050781e+01
3.932367086410522461e+00 -4.260869503021240234e+00 2.028985595703125000e+01
-9.528817176818847656e+00 5.937310218811035156e+00 3.397370910644531250e+01
-1.417142868041992188e+00 -6.857143044471740723e-01 1.920000076293945312e+01
-9.422321915626525879e-01 -1.014021277427673340e+00 1.884464454650878906e+01
-5.934306621551513672e+00 -7.226277589797973633e-01 1.532846736907958984e+01
-4.125068485736846924e-01 -1.606143712997436523e+00 1.843115806579589844e+01
-7.359477043151855469e+00 -4.797385692596435547e+00 2.745098114013671875e+01
-9.672452926635742188e+00 -5.639245510101318359e+00 2.535848999023437500e+01
-1.988331437110900879e+00 -5.694282650947570801e-01 1.960326766967773438e+01
-7.167070388793945312e+00 -4.145278453826904297e+00 2.711864471435546875e+01
-5.548503875732421875e+00 -7.470535039901733398e-01 1.523118782043457031e+01
-3.784516572952270508e+00 1.318587183952331543e+00 1.198715686798095703e+01
1.795511245727539062e-01 1.795511245727539062e-01 1.396508693695068359e+01
-5.742574214935302734e+00 -1.755775570869445801e+00 2.772277259826660156e+01
-6.291666507720947266e+00 -3.069444417953491211e+00 2.916666603088378906e+01
-8.618238449096679688e+00 -5.353941440582275391e+00 2.596599769592285156e+01
-1.296745419502258301e+00 3.165284097194671631e-01 2.144224548339843750e+01
8.302618861198425293e-01 -2.335596561431884766e+00 1.629485893249511719e+01
-7.967400074005126953e+00 -5.959249973297119141e+00 2.738386344909667969e+01
-5.767111301422119141e+00 -1.728000044822692871e+00 1.493333339691162109e+01
-7.423895359039306641e+00 -4.936170101165771484e+00 2.749590873718261719e+01
-2.323651552200317383e+00 -3.105578660964965820e+00 1.549100971221923828e+01
3.261620283126831055e+00 -4.430278778076171875e+00 2.231075668334960938e+01
-3.131242752075195312e+00 -4.924506247043609619e-01 1.951219558715820312e+01
-4.723745211958885193e-02 1.126950621604919434e+00 1.417123603820800781e+01
3.619296073913574219e+00 -4.787483692169189453e+00 2.190352058410644531e+01
-5.891362190246582031e+00 -1.203918099403381348e+00 1.495992851257324219e+01
2.634361267089843750e+00 -2.299559354782104492e+00 1.850220298767089844e+01
-6.392935752868652344e+00 1.483443677425384521e-01 1.483443737030029297e+01
2.276047617197036743e-01 -1.199538588523864746e+00 1.291810798645019531e+01
-9.074872016906738281e+00 6.186666488647460938e+00 3.446154022216796875e+01
4.098016262054443359e+00 -3.985997676849365234e+00 1.960326766967773438e+01
-2.501408338546752930e+00 -2.576525926589965820e+00 1.577464771270751953e+01
-7.975193977355957031e+00 -4.155038833618164062e+00 2.604651069641113281e+01
-8.806366324424743652e-01 1.803713589906692505e-01 2.228116798400878906e+01
-6.398547649383544922e+00 -1.706763505935668945e+00 1.525192928314208984e+01
-6.387499809265136719e+00 -1.212499976158142090e+00 2.625000000000000000e+01
-5.641618728637695312e+00 -1.273454904556274414e+00 1.493997287750244141e+01
4.035439968109130859e+00 -4.148848056793212891e+00 1.984642601013183594e+01
-8.006073951721191406e+00 -2.296127557754516602e+00 2.551252937316894531e+01
-3.329978466033935547e+00 1.386053204536437988e+00 1.207764244079589844e+01
-7.517188549041748047e+00 -1.943468332290649414e+00 2.566844940185546875e+01
3.256880760192871094e+00 -1.733945012092590332e+00 1.926605415344238281e+01
-1.305191159248352051e+00 -2.646891176700592041e-01 1.916714286804199219e+01
-5.782355785369873047e+00 -1.884460330009460449e+00 1.504702186584472656e+01
-1.411496877670288086e+00 -1.429709672927856445e+00 1.912350654602050781e+01
-6.037735939025878906e-02 9.995807409286499023e-01 1.408804988861083984e+01
-5.947981834411621094e+00 -2.819730997085571289e+00 1.506726455688476562e+01
-5.461121082305908203e+00 -1.019891500473022461e+00 1.518987369537353516e+01
-3.191800832748413086e+00 1.528550505638122559e+00 1.229868221282958984e+01
4.230216026306152344e+00 -4.690647602081298828e+00 2.014388465881347656e+01
4.865280985832214355e-01 -1.539645940065383911e-01 1.293302536010742188e+01
-2.490160942077636719e+00 3.530113399028778076e-01 2.003577804565429688e+01
-6.584307193756103516e+00 -3.565943241119384766e+00 2.804674530029296875e+01
4.015443921089172363e-01 -1.538223981857299805e+00 1.297297286987304688e+01
-6.883876323699951172e+00 -6.817042827606201172e-01 2.807017517089843750e+01
4.199999809265136719e+00 -3.057142972946166992e+00 2.000000000000000000e+01
-6.908797264099121094e+00 -3.602905511856079102e+00 2.711864471435546875e+01
-7.514955520629882812e+00 -4.850444793701171875e+00 2.716249084472656250e+01
-3.218557357788085938e+00 1.351214170455932617e+00 1.217832565307617188e+01
-6.129963874816894531e+00 -2.332129955291748047e+00 1.516245460510253906e+01
6.193944215774536133e-01 -1.060942888259887695e+00 1.287849712371826172e+01
-6.536964893341064453e+00 -1.282490253448486328e+00 2.614785957336425781e+01
-3.300942659378051758e+00 1.316896319389343262e+00 1.218274116516113281e+01
-5.651670455932617188e+00 -1.575055718421936035e+00 1.496659278869628906e+01
-2.714748144149780273e+00 -3.173370361328125000e+00 1.553398036956787109e+01
-5.725631713867187500e+00 -1.660649776458740234e-01 1.516245460510253906e+01
-8.217851638793945312e+00 -2.190620183944702148e+00 2.541603660583496094e+01
-5.677186489105224609e+00 -6.997295022010803223e-01 1.514878273010253906e+01
1.537268400192260742e+00 -1.413183927536010742e+00 1.447651863098144531e+01
-5.779577255249023438e+00 -2.339181184768676758e+00 1.511470985412597656e+01
-3.027533769607543945e+00 -4.780316352844238281e-01 1.968365478515625000e+01
-8.918304443359375000e+00 6.138572692871093750e+00 3.474663925170898438e+01
-2.465573787689208984e+00 -2.630445003509521484e+00 1.573770523071289062e+01
-9.145177841186523438e+00 6.611167430877685547e+00 3.411167526245117188e+01
2.684268474578857422e+00 -2.138613939285278320e+00 1.848184776306152344e+01
3.139240503311157227e+00 -2.144994258880615234e+00 1.933256530761718750e+01
-7.393019676208496094e+00 -4.006069898605346680e-01 2.549317169189453125e+01
-6.233937263488769531e+00 -2.701812267303466797e+00 2.767710113525390625e+01
4.200362205505371094e+00 -4.721786499023437500e+00 2.027761077880859375e+01
-5.780784606933593750e+00 -2.013531684875488281e+00 1.515561580657958984e+01
-3.229677975177764893e-01 -1.946535706520080566e+00 1.833060646057128906e+01
-1.084917664527893066e+00 2.332065850496292114e-01 2.129277610778808594e+01
-7.158233165740966797e+00 -4.755020141601562500e-01 2.698795127868652344e+01
-5.908318996429443359e+00 -2.349745273590087891e+00 2.852292060852050781e+01
