5.692389011383056641e-01 -2.264799118041992188e+00 1.775898551940917969e+01
3.539746046066284180e+00 -3.919171571731567383e+00 2.244488906860351562e+01
-1.093159103393554688e+01 -4.013835430145263672e+00 2.582628822326660156e+01
4.769297242164611816e-01 -1.047865450382232666e-01 1.448900413513183594e+01
-1.140684413909912109e+01 -4.102661609649658203e+00 2.555133056640625000e+01
-2.448381185531616211e+00 -8.796579241752624512e-01 2.052535057067871094e+01
3.533705472946166992e-01 6.586517691612243652e-01 1.442679214477539062e+01
-6.095636844635009766e+00 -6.738651394844055176e-01 1.480828571319580078e+01
-9.350039482116699219e+00 -2.066562175750732422e+00 2.631166839599609375e+01
-2.298661708831787109e+00 -9.330900311470031738e-01 2.043795585632324219e+01
-9.747324943542480469e+00 -4.199176788330078125e+00 2.765432167053222656e+01
-4.918032884597778320e-02 -4.989491403102874756e-01 1.412358093261718750e+01
3.733897209167480469e+00 -3.809368848800659180e+00 2.186076736450195312e+01
-3.056491613388061523e+00 -2.566897869110107422e+00 1.665014839172363281e+01
-8.460000038146972656e+00 8.115384578704833984e-01 2.584615325927734375e+01
-3.331219434738159180e+00 -3.275609731674194336e+00 1.639024353027343750e+01
4.861892700195312500e+00 -4.193734169006347656e+00 2.148337554931640625e+01
-8.616540908813476562e+00 -2.329991579055786133e+00 2.807017517089843750e+01
5.633803009986877441e-01 3.727993071079254150e-01 1.478873252868652344e+01
6.902953386306762695e-01 -5.345991849899291992e-01 1.417721557617187500e+01
-1.120814132690429688e+01 -4.533793926239013672e+00 2.580645179748535156e+01
2.389306575059890747e-01 -4.598997533321380615e-01 1.403508758544921875e+01
-5.228126049041748047e+00 2.744243621826171875e+00 1.190223121643066406e+01
-1.586762070655822754e+00 -3.834227919578552246e-01 2.003577804565429688e+01
-2.849787712097167969e+00 -2.960721969604492188e+00 1.783439445495605469e+01
-1.123293209075927734e+01 8.039156913757324219e+00 3.373493957519531250e+01
3.100971579551696777e-01 -1.395859718322753906e+00 1.419518375396728516e+01
-1.100612831115722656e+01 7.863125801086425781e+00 3.432073593139648438e+01
-8.051915168762207031e+00 -1.399999976158142090e+00 2.859574508666992188e+01
-8.367854118347167969e+00 -1.823529362678527832e+00 2.783761405944824219e+01
-2.225865125656127930e+00 -6.933819055557250977e-01 2.040072822570800781e+01
-2.736615419387817383e+00 -6.024615168571472168e-01 2.067692375183105469e+01
-9.045108556747436523e-01 -1.565319299697875977e+00 1.968365478515625000e+01
-6.664003372192382812e+00 -3.386595547199249268e-01 1.491344833374023438e+01
-6.454103946685791016e+00 -8.367166519165039062e-01 1.482789039611816406e+01
1.132692337036132812e+00 -1.693750023841857910e+00 1.615384674072265625e+01
-3.283574581146240234e+00 -2.367448806762695312e+00 1.677483749389648438e+01
-8.491660118103027344e+00 -1.072279572486877441e+00 2.668784713745117188e+01
-9.669545173645019531e+00 -2.777864933013916016e+00 2.637362670898437500e+01
-4.177377820014953613e-01 -1.357754945755004883e+00 1.439588642120361328e+01
-4.749909400939941406e+00 2.926167249679565430e+00 1.216069507598876953e+01
-1.042857170104980469e+01 1.707875490188598633e+00 3.076922988891601562e+01
-3.033940494060516357e-01 2.425496727228164673e-01 1.390728473663330078e+01
2.395845651626586914e+00 -1.304450988769531250e+00 1.994065284729003906e+01
-7.940559387207031250e+00 -1.108391642570495605e+00 2.937063026428222656e+01
8.901383876800537109e-01 -6.812283992767333984e-01 1.453287220001220703e+01
3.273184970021247864e-02 -1.027696132659912109e+00 1.409987449645996094e+01
3.726683855056762695e+00 -3.717616558074951172e+00 2.176165771484375000e+01
-3.233233213424682617e+00 -2.267767667770385742e+00 1.681681632995605469e+01
-1.141551494598388672e+01 -4.937788009643554688e+00 2.580645179748535156e+01
4.485659599304199219e+00 -4.138941764831542969e+00 2.141491317749023438e+01
-6.372471332550048828e+00 -8.957783579826354980e-01 1.477572536468505859e+01
-3.489665269851684570e+00 -2.956200838088989258e+00 1.653543281555175781e+01
4.319973945617675781e+00 -3.267614841461181641e+00 2.171945762634277344e+01
-3.428714275360107422e+00 -2.330165147781372070e+00 1.680840492248535156e+01
3.878324508666992188e+00 -4.451462745666503906e+00 2.234042549133300781e+01
-1.108882045745849609e+01 -4.066615581512451172e+00 2.572741127014160156e+01
-1.980777233839035034e-01 7.530296444892883301e-01 1.404095268249511719e+01
-9.689110755920410156e+00 -4.190357208251953125e+00 2.793017387390136719e+01
2.865002155303955078e-01 -1.482014417648315430e+00 1.421921253204345703e+01
-9.652247428894042969e+00 -4.222222328186035156e+00 2.849872779846191406e+01
-1.151791572570800781e+00 4.273615777492523193e-01 2.188925170898437500e+01
-3.679571151733398438e+00 3.311494886875152588e-01 2.001191139221191406e+01
-1.087326145172119141e+01 -4.279752731323242188e+00 2.596599769592285156e+01
2.543410301208496094e+00 -1.942535877227783203e+00 2.098688316345214844e+01
-9.232577323913574219e+00 -3.455919504165649414e+00 2.821158599853515625e+01
-3.386924982070922852e+00 -3.555448055267333984e+00 1.627118682861328125e+01
-5.756531715393066406e+00 1.851192712783813477e+00 1.272245407104492188e+01
-8.562091827392578125e+00 -1.947712421417236328e+00 2.745098114013671875e+01
-7.574296951293945312e+00 2.546184659004211426e-01 2.698795127868652344e+01
-4.719113349914550781e+00 2.924055337905883789e+00 1.220930194854736328e+01
-9.167933464050292969e+00 7.560790181159973145e-01 2.553191566467285156e+01
-6.075326919555664062e+00 -6.359945982694625854e-02 1.515561580657958984e+01
-6.206235885620117188e+00 3.296213969588279724e-02 1.496659278869628906e+01
-8.787611007690429688e+00 -2.012871980667114258e+00 2.703137588500976562e+01
-8.839549064636230469e+00 -2.736340045928955078e+00 2.914137077331542969e+01
-1.876201868057250977e+00 -1.628605723381042480e-01 2.019230842590332031e+01
6.414141654968261719e-01 -5.138888955116271973e-01 1.414141368865966797e+01
7.686056494712829590e-01 -3.306244611740112305e-01 1.437125778198242188e+01
6.088624000549316406e-01 -1.211759686470031738e+00 1.431614780426025391e+01
-5.423019886016845703e+00 2.175425529479980469e+00 1.243523311614990234e+01
-1.102688217163085938e+01 -4.201229095458984375e+00 2.580645179748535156e+01
-3.604395627975463867e+00 -2.421078920364379883e+00 1.678321647644042969e+01
-4.777534484863281250e+00 3.040116786956787109e+00 1.225382900238037109e+01
-1.068214035034179688e+01 -4.828481674194335938e+00 2.643587684631347656e+01
4.800128459930419922e+00 -3.875963926315307617e+00 2.159383010864257812e+01
7.604078054428100586e-01 -4.256584644317626953e-01 1.427357673645019531e+01
3.604553043842315674e-01 -2.103709876537322998e-01 1.416526126861572266e+01
-2.497861862182617188e+00 3.310934603214263916e-01 2.052535057067871094e+01
3.842592537403106689e-01 -9.402356743812561035e-01 1.414141368865966797e+01
-8.891073226928710938e+00 -2.585585594177246094e+00 2.751842689514160156e+01
3.612040281295776367e-01 -4.561036825180053711e-01 1.404682254791259766e+01
4.037450790405273438e+00 -4.519711017608642578e+00 2.207621574401855469e+01
-1.071395492553710938e+01 -3.886661529541015625e+00 2.590593719482421875e+01
-9.002383232116699219e+00 -2.006354331970214844e+00 2.668784713745117188e+01
-8.498775482177734375e+00 -1.819591879844665527e+00 2.742857170104980469e+01
-1.062480354309082031e+01 -4.573783397674560547e+00 2.637362670898437500e+01
-2.534107446670532227e+00 -3.485244274139404297e+00 1.625544357299804688e+01
-5.170934200286865234e+00 2.977854728698730469e+00 1.162629795074462891e+01
-3.299189209938049316e-01 -8.548868894577026367e-01 1.434058856964111328e+01
3.610760867595672607e-01 -9.541824460029602051e-01 1.412358093261718750e+01
4.320570945739746094e+00 -3.032446384429931641e+00 2.180402374267578125e+01
4.875640869140625000e+00 -4.054487228393554688e+00 2.153846168518066406e+01
3.313708901405334473e-01 -1.187552571296691895e+00 1.412952041625976562e+01
-5.945618152618408203e+00 -7.191011309623718262e-02 1.510112380981445312e+01
-5.917312502861022949e-01 2.280361801385879517e-01 2.170542716979980469e+01
1.188629388809204102e+00 2.547377645969390869e-01 1.480828571319580078e+01
-6.717834949493408203e+00 -1.774622872471809387e-02 1.490683269500732422e+01
-1.675239205360412598e+00 -1.214712977409362793e+00 2.009569358825683594e+01
-1.113343715667724609e+01 -4.993793487548828125e+00 2.606671905517578125e+01
-9.782011985778808594e+00 -9.870426654815673828e-01 2.560975646972656250e+01
-3.499573767185211182e-01 -9.578005075454711914e-01 1.432225036621093750e+01
-1.073963165283203125e+01 -3.605990886688232422e+00 2.580645179748535156e+01
-9.628775596618652344e+00 -3.188394308090209961e+00 2.670906257629394531e+01
-5.546218529343605042e-02 -1.017226934432983398e+00 1.411764717102050781e+01
-5.892678260803222656e+00 4.247385263442993164e-01 1.527967262268066406e+01
2.123662233352661133e+00 -1.611177206039428711e+00 1.997621917724609375e+01
-8.931396484375000000e+00 -2.370460033416748047e+00 2.711864471435546875e+01
-1.992159247398376465e+00 -8.570566773414611816e-01 2.026538085937500000e+01
-8.576568603515625000e+00 -2.256067037582397461e+00 2.811715507507324219e+01
-5.387442111968994141e+00 2.571173667907714844e+00 1.198715686798095703e+01
-2.503225803375244141e+00 -3.894623756408691406e+00 1.806451606750488281e+01
1.038560390472412109e+00 -1.622964859008789062e+00 1.439588642120361328e+01
-5.878787994384765625e+00 -1.435660958290100098e+00 1.475625801086425781e+01
-2.258809328079223633e+00 -3.979343771934509277e-01 2.041312217712402344e+01
9.815053939819335938e-01 -1.670537590980529785e+00 1.445161247253417969e+01
-4.857454776763916016e+00 2.698909044265747070e+00 1.221818161010742188e+01
4.375261068344116211e-01 -5.641454458236694336e-01 1.404095268249511719e+01
-1.076489067077636719e+01 -4.807993888854980469e+00 2.633228874206542969e+01
-9.243845343589782715e-01 -1.530480623245239258e+00 1.969519424438476562e+01
-9.856682777404785156e+00 -3.979871273040771484e+00 2.705314064025878906e+01
3.097046315670013428e-01 -1.359071731567382812e+00 1.417721557617187500e+01
-4.842708587646484375e+00 2.807595729827880859e+00 1.203869533538818359e+01
-9.180713653564453125e+00 9.498860836029052734e-01 2.551252937316894531e+01
-9.379027485847473145e-01 -1.109548926353454590e+00 1.968365478515625000e+01
-6.117437839508056641e+00 -1.224199295043945312e+00 1.494661903381347656e+01
-3.679900646209716797e+00 -2.674441576004028320e+00 1.667493820190429688e+01
-1.462269783020019531e+00 1.247771829366683960e-02 1.996434974670410156e+01
-9.448470115661621094e+00 -3.234299421310424805e+00 2.705314064025878906e+01
-5.384587764739990234e+00 2.522222280502319336e+00 1.204301071166992188e+01
-8.775635719299316406e+00 -3.238242119550704956e-02 2.590593719482421875e+01
-6.426654815673828125e+00 -1.542933821678161621e+00 1.502683353424072266e+01
-1.042544841766357422e+01 -3.991412878036499023e+00 2.622950744628906250e+01
-4.951114177703857422e+00 2.743709564208984375e+00 1.207764244079589844e+01
-3.342088699340820312e+00 1.034396529197692871e+00 2.101313400268554688e+01
-8.537897109985351562e+00 -1.867155671119689941e+00 2.738386344909667969e+01
-5.430667877197265625e+00 2.256786584854125977e+00 1.232575225830078125e+01
-1.179219532012939453e+01 8.422438621520996094e+00 3.278048706054687500e+01
-5.006446838378906250e+00 2.746776580810546875e+00 1.203438377380371094e+01
-9.692874908447265625e+00 -4.026207923889160156e+00 2.751842689514160156e+01
-3.433624029159545898e+00 -3.544573545455932617e+00 1.627906990051269531e+01
-1.213530674576759338e-01 -1.460042238235473633e+00 1.420718860626220703e+01
-5.837568283081054688e+00 5.217785760760307312e-02 1.524500942230224609e+01
3.406705617904663086e+00 -5.318512916564941406e+00 2.448979568481445312e+01
-5.971149444580078125e+00 -1.988459825515747070e-01 1.491344833374023438e+01
1.479289978742599487e-01 -7.650042325258255005e-02 1.420118331909179688e+01
-8.590248107910156250e+00 -2.357570648193359375e+00 2.874251556396484375e+01
-1.031928157806396484e+01 -3.774394989013671875e+00 2.622950744628906250e+01
-6.513442039489746094e+00 -7.465844154357910156e-01 1.480828571319580078e+01
1.222465991973876953e+00 -2.127248764038085938e+00 1.474330806732177734e+01
-4.869989395141601562e+00 3.109786987304687500e+00 1.213434410095214844e+01
8.488927483558654785e-01 -8.858010917901992798e-02 1.458966541290283203e+01
-1.018455600738525391e+01 -2.937451839447021484e+00 2.594594573974609375e+01
-8.242070198059082031e+00 -1.657762885093688965e+00 2.804674530029296875e+01
2.385163307189941406e+00 -1.740652799606323242e+00 1.994065284729003906e+01
4.414587497711181641e+00 -3.891874551773071289e+00 2.149712181091308594e+01
7.338321805000305176e-01 -2.315339326858520508e+00 1.795831108093261719e+01
2.781512737274169922e-01 -2.668067216873168945e-01 1.411764717102050781e+01
-1.112295722961425781e+01 -5.179766654968261719e+00 2.614785957336425781e+01
-2.692974090576171875e+00 -3.541867256164550781e+00 1.616939353942871094e+01
-9.708783149719238281e+00 -1.779661059379577637e+00 2.588597869873046875e+01
-7.376380443572998047e+00 -2.149532735347747803e-01 2.854715347290039062e+01
-6.493827342987060547e+00 -3.187830746173858643e-01 1.481481456756591797e+01
-1.028009605407714844e+01 -4.684590816497802734e+00 2.696629142761230469e+01
6.255804300308227539e-01 -8.450823426246643066e-01 1.418319988250732422e+01
-9.596811294555664062e+00 4.631738737225532532e-02 2.551252937316894531e+01
-5.084697723388671875e+00 2.767259836196899414e+00 1.195729541778564453e+01
-2.818013668060302734e+00 -2.449105530977249146e-01 2.072794532775878906e+01
-6.586908340454101562e+00 -2.156125545501708984e+00 1.486068153381347656e+01
-8.647058486938476562e+00 -2.309859037399291992e+00 2.783761405944824219e+01
-9.065499305725097656e+00 7.532368898391723633e-01 2.559025192260742188e+01
-1.071715641021728516e+01 -4.017001628875732422e+00 2.596599769592285156e+01
-1.094659423828125000e+01 -4.550309658050537109e+00 2.600619125366210938e+01
-2.446003675460815430e+00 5.924344062805175781e-01 2.050030517578125000e+01
-8.881761550903320312e+00 -4.204018414020538330e-01 2.596599769592285156e+01
-9.789958000183105469e+00 -4.424267768859863281e+00 2.811715507507324219e+01
-1.812011957168579102e+00 -1.325525522232055664e+00 2.018017959594726562e+01
-4.834648609161376953e+00 3.033715963363647461e+00 1.205165004730224609e+01
-6.701609134674072266e+00 8.275861851871013641e-03 1.544827556610107422e+01
-8.827981948852539062e+00 7.714067101478576660e-01 2.568807411193847656e+01
-9.813935279846191406e+00 -1.450995445251464844e+00 2.572741127014160156e+01
-6.309146881103515625e+00 -1.084432721138000488e+00 1.477572536468505859e+01
-9.437842369079589844e+00 -2.135262012481689453e+00 2.627052307128906250e+01
-1.601108074188232422e+00 8.400276899337768555e-01 2.326869773864746094e+01
-6.252863407135009766e+00 -6.348017454147338867e-01 1.480176258087158203e+01
-5.557017326354980469e+00 2.212719202041625977e+00 1.228070163726806641e+01
-2.986842155456542969e+00 -2.621578931808471680e+00 1.768420982360839844e+01
4.029280662536621094e+00 -3.942711591720581055e+00 2.138765144348144531e+01
-6.108455181121826172e+00 -1.147410392761230469e+00 1.487383842468261719e+01
7.249893546104431152e-01 -1.968922972679138184e+00 1.430395889282226562e+01
-1.058919429779052734e+01 8.759428977966308594e+00 3.425076293945312500e+01
1.115517258644104004e+00 -1.887068986892700195e+00 1.448275852203369141e+01
-8.607858657836914062e+00 4.260400533676147461e-01 2.588597869873046875e+01
-2.375761270523071289e+00 4.214372634887695312e-01 2.046285057067871094e+01
2.778738141059875488e-01 3.902333676815032959e-01 1.452031135559082031e+01
-8.767661094665527344e+00 -1.124803781509399414e+00 2.637362670898437500e+01
-3.246759653091430664e+00 -2.407278060913085938e+00 1.674975013732910156e+01
4.683237552642822266e+00 -4.270873069763183594e+00 2.141491317749023438e+01
-8.619883060455322266e-01 -1.684795379638671875e+00 1.964912223815917969e+01
-6.417298316955566406e+00 6.861346364021301270e-01 1.497993755340576172e+01
1.672326028347015381e-01 -1.682937145233154297e+00 1.426146030426025391e+01
-3.697120189666748047e+00 -2.661370515823364258e+00 1.668321800231933594e+01
-1.144940471649169922e+01 8.151785850524902344e+00 3.333333206176757812e+01
-5.105504512786865234e+00 2.817572355270385742e+00 1.185603427886962891e+01
-3.632111787796020508e+00 -3.690453290939331055e+00 1.620057868957519531e+01
4.013618469238281250e+00 -4.237354278564453125e+00 2.178988265991210938e+01
-9.513232231140136719e+00 -3.269446611404418945e+00 2.694466781616210938e+01
6.895213723182678223e-01 -1.461836993694305420e-01 1.448900413513183594e+01
-8.322662353515625000e+00 6.234204173088073730e-01 2.830665588378906250e+01
-6.341952800750732422e+00 4.048149883747100830e-01 1.497993755340576172e+01
-3.068588495254516602e+00 -2.470675945281982422e+00 1.669980049133300781e+01
6.675224900245666504e-01 -1.170731663703918457e+00 1.437740707397460938e+01
4.670352935791015625e-01 -1.414291739463806152e+00 1.429179096221923828e+01
-2.702088356018066406e+00 6.019656062126159668e-01 2.063882064819335938e+01
-6.398573398590087891e+00 4.672313928604125977e-01 1.497993755340576172e+01
-1.804255247116088867e-01 -3.638297915458679199e-01 1.429787254333496094e+01
4.336102008819580078e+00 -3.923322677612304688e+00 2.146964836120605469e+01
-2.559855461120605469e+00 -3.638803005218505859e+00 1.733746147155761719e+01
1.168030977249145508e+00 -1.693666577339172363e+00 1.447651863098144531e+01
-2.048551887273788452e-01 -4.007666110992431641e-01 1.431005096435546875e+01
-5.193286418914794922e+00 2.773851633071899414e+00 1.187279129028320312e+01
-1.664874553680419922e+00 1.069295108318328857e-01 2.007168388366699219e+01
-2.186779975891113281e+00 -6.379624009132385254e-01 2.037598609924316406e+01
7.486888170242309570e-01 5.314685106277465820e-01 1.468531513214111328e+01
-3.733447194099426270e-01 -1.406663775444030762e+00 1.435284042358398438e+01
-1.158562660217285156e+01 -4.958715438842773438e+00 2.568807411193847656e+01
-5.793414592742919922e+00 1.213351339101791382e-01 1.515561580657958984e+01
-7.731778621673583984e-01 -9.492711424827575684e-01 1.959183692932128906e+01
-4.872622966766357422e+00 2.787226438522338867e+00 1.205597400665283203e+01
1.240545272827148438e+00 -1.158751130104064941e+00 1.477572536468505859e+01
2.138673067092895508e+00 -1.136282086372375488e+00 2.008368110656738281e+01
-5.016151905059814453e+00 2.933637619018554688e+00 1.179775238037109375e+01
-3.681795835494995117e+00 -2.894918680191040039e+00 1.657622146606445312e+01
-2.424297809600830078e+00 -9.536019563674926758e-01 2.051282119750976562e+01
-1.609816998243331909e-01 1.539101451635360718e-01 1.397670555114746094e+01
-2.374543190002441406e+00 4.025578498840332031e-01 2.046285057067871094e+01
-7.459207177162170410e-01 -1.210372924804687500e+00 1.958041954040527344e+01
-1.093050599098205566e+00 -1.624263882637023926e+00 1.978798675537109375e+01
-8.266222953796386719e+00 -1.651414275169372559e+00 2.795341110229492188e+01
-7.037990689277648926e-01 2.588538229465484619e-01 2.163554382324218750e+01
1.529362052679061890e-01 -1.499366283416748047e+00 1.419518375396728516e+01
-5.683628082275390625e+00 3.119468986988067627e-01 1.486725616455078125e+01
-4.145391583442687988e-01 -8.100389242172241211e-01 1.453916072845458984e+01
-8.573933243751525879e-01 -6.867328882217407227e-01 1.963763809204101562e+01
-7.275313854217529297e+00 4.769874364137649536e-02 2.811715507507324219e+01
-3.420426130294799805e+00 8.239348530769348145e-01 2.105263137817382812e+01
-1.132534885406494141e+01 8.094810485839843750e+00 3.353293228149414062e+01
-9.807784080505371094e+00 -3.505162715911865234e+00 2.668784713745117188e+01
-1.478002429008483887e+00 -6.355529427528381348e-01 1.997621917724609375e+01
4.179682731628417969e+00 -4.156825542449951172e+00 2.133333396911621094e+01
-1.079733943939208984e+01 -4.775430202484130859e+00 2.629108047485351562e+01
3.289547920227050781e+00 -4.495762825012207031e+00 2.372881317138671875e+01
-8.014866828918457031e+00 4.608763754367828369e-01 2.629108047485351562e+01
-2.236650466918945312e+00 1.013349518179893494e-01 2.038834953308105469e+01
-1.026293486356735229e-01 -3.027989864349365234e-01 1.424936389923095703e+01
-6.405694007873535156e+00 -5.160142183303833008e-01 1.494661903381347656e+01
-3.909405946731567383e+00 -2.821782112121582031e+00 1.663366317749023438e+01
-1.468386054039001465e-01 4.575707018375396729e-02 1.397670555114746094e+01
-1.139044761657714844e+01 -3.780894517898559570e+00 2.547384452819824219e+01
-3.506548330187797546e-02 4.034642875194549561e-01 1.419518375396728516e+01
-2.565394401550292969e+00 -3.570992469787597656e+00 1.709923744201660156e+01
6.108500361442565918e-01 -1.309696674346923828e+00 1.435284042358398438e+01
3.960817754268646240e-01 -1.563884139060974121e+00 1.431005096435546875e+01
3.211143732070922852e+00 -5.087243556976318359e+00 2.463343048095703125e+01
4.070458412170410156e-01 -1.441001653671264648e+00 1.426146030426025391e+01
-9.819659233093261719e+00 -2.345975160598754883e+00 2.600619125366210938e+01
1.749369204044342041e-01 -1.291421413421630859e+00 1.412952041625976562e+01
7.695578336715698242e-01 -7.606292366981506348e-01 1.428571414947509766e+01
-3.289457321166992188e+00 9.906425476074218750e-01 2.096069908142089844e+01
-5.201487064361572266e+00 2.270632028579711914e+00 1.249070644378662109e+01
3.702824115753173828e+00 -3.293324708938598633e+00 2.156611061096191406e+01
-3.098290562629699707e-01 -7.653846144676208496e-01 1.435897445678710938e+01
-8.269298553466796875e+00 5.394737124443054199e-01 2.947368431091308594e+01
-2.297387838363647461e+00 9.537843465805053711e-01 2.250502395629882812e+01
-9.192307472229003906e+00 -1.903453707695007324e+00 2.637362670898437500e+01
-4.809472084045410156e+00 2.757411479949951172e+00 1.214750576019287109e+01
-3.567295551300048828e+00 -2.949685454368591309e-01 2.113207626342773438e+01
-5.319843769073486328e+00 2.689740896224975586e+00 1.192758274078369141e+01
-3.299001216888427734e+00 7.016229629516601562e-01 2.097378349304199219e+01
-8.294358253479003906e+00 -1.494685173034667969e+00 2.747342681884765625e+01
-8.432026863098144531e+00 -1.990825653076171875e+00 2.802335357666015625e+01
-1.145544528961181641e+01 8.266336441040039062e+00 3.326732635498046875e+01
-4.826040267944335938e+00 2.857245445251464844e+00 1.205165004730224609e+01
1.028891801834106445e+00 -1.837861180305480957e+00 1.448900413513183594e+01
-6.714980125427246094e+00 -5.346884727478027344e-01 1.484754753112792969e+01
-3.657073259353637695e+00 -3.313170671463012695e+00 1.639024353027343750e+01
-5.041229724884033203e+00 2.956673622131347656e+00 1.174004173278808594e+01
-3.531372547149658203e+00 -3.121568679809570312e+00 1.647058868408203125e+01
-1.121822357177734375e+01 -4.327718257904052734e+00 2.572741127014160156e+01
-5.256141662597656250e+00 2.539378643035888672e+00 1.213872814178466797e+01
-1.056913185119628906e+01 -5.237138271331787109e+00 2.700964546203613281e+01
-6.270174026489257812e+00 3.419527411460876465e-01 1.497993755340576172e+01
-5.494446754455566406e+00 4.731230437755584717e-01 1.492669963836669922e+01
6.457976102828979492e-01 -1.295454502105712891e+00 1.440823364257812500e+01
-2.742687463760375977e-01 -1.082238197326660156e+00 1.424332332611083984e+01
3.997402667999267578e+00 -4.242208003997802734e+00 2.181818199157714844e+01
-1.033779907226562500e+01 1.597129225730895996e+00 3.215311050415039062e+01
2.631676912307739258e+00 -1.185714244842529297e+00 2.086956596374511719e+01
3.113832950592041016e+00 -4.556916236877441406e+00 2.420749282836914062e+01
1.767416357994079590e+00 4.648930549621582031e+00 1.843115806579589844e+01
-8.994479179382324219e+00 1.082018971443176270e+00 2.649842262268066406e+01
-9.838449478149414062e+00 -4.018578529357910156e+00 2.714054870605468750e+01
-9.708729743957519531e+00 -4.273119926452636719e+00 2.904062271118164062e+01
-5.298141479492187500e+00 2.208921909332275391e+00 1.249070644378662109e+01
-3.291543722152709961e+00 -2.963126897811889648e+00 1.651917457580566406e+01
-7.924799919128417969e+00 4.704000055789947510e-01 2.687999916076660156e+01
-5.748449802398681641e+00 5.757307410240173340e-01 1.488042545318603516e+01
7.578723430633544922e-01 -8.106383085250854492e-01 1.429787254333496094e+01
-5.117908954620361328e+00 2.351501703262329102e+00 1.245828723907470703e+01
-1.609552264213562012e+00 -1.355820894241333008e+00 2.005970191955566406e+01
-3.603899955749511719e+00 -1.852528899908065796e-01 2.047532081604003906e+01
-8.697749137878417969e+00 -1.837620615959167480e+00 2.700964546203613281e+01
-5.059251308441162109e+00 2.625227212905883789e+00 1.221374034881591797e+01
-8.244565010070800781e+00 6.878882050514221191e-01 2.608695602416992188e+01
2.113032490015029907e-01 -2.016026973724365234e-01 1.417123603820800781e+01
-3.835132598876953125e+00 -3.117762565612792969e+00 1.648675155639648438e+01
-8.093750000000000000e+00 -6.137820482254028320e-01 2.692307662963867188e+01
-5.253870964050292969e+00 2.580122470855712891e+00 1.209938812255859375e+01
-8.529548645019531250e+00 -1.150855347514152527e-01 2.612752723693847656e+01
-8.716720581054687500e+00 -2.109577894210815430e+00 2.727272796630859375e+01
-7.911338329315185547e+00 3.716965019702911377e-01 2.864450073242187500e+01
3.648186206817626953e+00 -4.571526527404785156e+00 2.299794578552246094e+01
-9.064615249633789062e+00 -4.607692360877990723e-01 2.584615325927734375e+01
5.734177231788635254e-01 -3.156118094921112061e-01 1.417721557617187500e+01
2.836332619190216064e-01 -2.142245136201381683e-02 1.439588642120361328e+01
-8.493826866149902344e+00 5.208333134651184082e-01 2.592592620849609375e+01
-1.149467277526855469e+01 -4.318112850189208984e+00 2.557077598571777344e+01
-9.102442741394042969e+00 -1.888888835906982422e+00 2.647754096984863281e+01
-1.169811367988586426e+00 -1.060731172561645508e+00 1.981132125854492188e+01
3.959079265594482422e+00 -3.659207105636596680e+00 2.148337554931640625e+01
5.648535490036010742e-02 -5.619246959686279297e-01 1.405857753753662109e+01
-3.328507184982299805e+00 -2.383424758911132812e+00 1.677483749389648438e+01
6.724503040313720703e-01 -3.580194711685180664e-01 1.421921253204345703e+01
-1.136963176727294922e+01 -4.786809921264648438e+00 2.576687049865722656e+01
-9.920463562011718750e+00 -2.337451696395874023e+00 2.594594573974609375e+01
-2.190909147262573242e+00 7.878787815570831299e-03 2.036363601684570312e+01
-3.407933473587036133e+00 -3.129774808883666992e+00 1.645445632934570312e+01
-6.432829380035400391e+00 -2.077402114868164062e+00 1.494661903381347656e+01
1.243082135915756226e-01 -8.297147750854492188e-01 1.430395889282226562e+01
-2.844002246856689453e+00 -3.034427165985107422e+00 1.807423400878906250e+01
-3.500732898712158203e+00 -3.255495786666870117e+00 1.641426467895507812e+01
-5.510786056518554688e+00 2.237659931182861328e+00 1.228519153594970703e+01
-2.418466806411743164e-01 -9.326556324958801270e-01 1.423125839233398438e+01
-2.885043144226074219e+00 -6.779975295066833496e-01 2.076637840270996094e+01
-9.180640220642089844e+00 3.704268336296081543e-01 2.560975646972656250e+01
-1.017904567718505859e+01 -3.562939882278442383e+00 2.627052307128906250e+01
-6.037583827972412109e+00 1.373601853847503662e-01 1.503355693817138672e+01
-1.958433747291564941e+00 -1.614457815885543823e-01 2.024096298217773438e+01
1.554140150547027588e-01 -1.707855582237243652e+00 1.426751613616943359e+01
3.998724460601806641e+00 -3.930484771728515625e+00 2.142857170104980469e+01
8.306900858879089355e-01 -7.779682874679565430e-01 1.440205764770507812e+01
-8.953343391418457031e+00 -9.611197710037231445e-01 2.612752723693847656e+01
-3.253226757049560547e+00 4.210202693939208984e-01 2.065150642395019531e+01
-4.765527248382568359e+00 3.083792686462402344e+00 1.234840106964111328e+01
-3.610864162445068359e+00 -2.851851940155029297e+00 1.659259223937988281e+01
-9.999201774597167969e+00 -4.041500568389892578e+00 2.681564331054687500e+01
-6.777728557586669922e+00 -1.702607154846191406e+00 1.484754753112792969e+01
-7.611486434936523438e+00 -6.064189076423645020e-01 2.837837791442871094e+01
-7.650326728820800781e+00 -3.047385513782501221e-01 2.745098114013671875e+01
3.506929874420166016e-01 -1.016379714012145996e+00 1.411171817779541016e+01
-8.259811401367187500e+00 -1.255887001752853394e-01 2.637362670898437500e+01
4.241800785064697266e+00 -4.506752490997314453e+00 2.160771751403808594e+01
-6.475417137145996094e+00 -4.600811898708343506e-01 1.515561580657958984e+01
-5.122036457061767578e+00 2.893305540084838867e+00 1.171548080444335938e+01
4.280690670013427734e+00 -4.482736587524414062e+00 2.148337554931640625e+01
-2.477535307407379150e-01 -4.094993472099304199e-01 1.437740707397460938e+01
-9.307159423828125000e+00 -9.399538040161132812e-01 2.586605072021484375e+01
-9.473883628845214844e+00 9.341408014297485352e-01 2.543527603149414062e+01
-8.015103340148925781e+00 -2.106518298387527466e-01 2.670906257629394531e+01
-8.372472763061523438e+00 1.500777602195739746e-01 2.612752723693847656e+01
1.333771347999572754e+00 -2.097240447998046875e+00 1.471747684478759766e+01
-5.483741283416748047e+00 2.260869503021240234e+00 1.227621459960937500e+01
1.034512877464294434e+00 -1.577107906341552734e-01 1.467889881134033203e+01
4.510548412799835205e-01 -1.170464158058166504e+00 1.417721557617187500e+01
-6.690165996551513672e+00 2.568477690219879150e-01 1.508756160736083984e+01
-1.912101149559020996e+00 -8.380493521690368652e-01 2.022877693176269531e+01
4.258635342121124268e-01 -1.110362291336059570e+00 1.415332794189453125e+01
3.923275232315063477e+00 -3.140554428100585938e+00 2.166344261169433594e+01
-5.303305625915527344e+00 2.442789793014526367e+00 1.220486736297607422e+01
-5.447793483734130859e+00 2.465016126632690430e+00 1.205597400665283203e+01
7.907679080963134766e-01 -2.679033577442169189e-01 1.449525451660156250e+01
-5.213699817657470703e+00 2.701748132705688477e+00 1.198715686798095703e+01
4.319931566715240479e-01 -1.600940942764282227e+00 1.437125778198242188e+01
-3.476840972900390625e+00 7.149643898010253906e-01 1.995249366760253906e+01
-3.646848917007446289e+00 6.397145986557006836e-01 1.997621917724609375e+01
-5.902144908905029297e+00 -8.114387989044189453e-01 1.501340484619140625e+01
4.430008530616760254e-01 -3.763621151447296143e-01 1.408214569091796875e+01
-1.022546195983886719e+01 1.524781346321105957e+00 3.265306091308593750e+01
-6.515987873077392578e+00 -2.869032025337219238e-01 1.471747684478759766e+01
3.423317193984985352e+00 -4.403886318206787109e+00 2.331714057922363281e+01
2.243742465972900391e+00 -1.309296727180480957e+00 2.002383804321289062e+01
-5.131298065185546875e+00 2.432512044906616211e+00 1.235748481750488281e+01
-5.250916957855224609e+00 2.366471052169799805e+00 1.232575225830078125e+01
-9.084972381591796875e+00 -1.787568807601928711e+00 2.643587684631347656e+01
-3.600593090057373047e+00 -2.809688568115234375e+00 1.660899734497070312e+01
-6.538666725158691406e+00 -1.969777822494506836e+00 1.493333339691162109e+01
-8.863108634948730469e+00 -3.967517316341400146e-01 2.598607826232910156e+01
-8.775444030761718750e+00 -2.097738265991210938e+00 2.714054870605468750e+01
-1.127938938140869141e+01 -4.169465541839599609e+00 2.564885520935058594e+01
-8.093450218439102173e-02 6.841886043548583984e-02 1.401752185821533203e+01
-6.044137477874755859e+00 3.687026202678680420e-01 1.497993755340576172e+01
-1.645546913146972656e+00 -9.617453813552856445e-01 2.008368110656738281e+01
-3.917348384857177734e-02 3.547137379646301270e-01 1.446405506134033203e+01
-4.077727794647216797e+00 -2.650224208831787109e+00 1.674140548706054688e+01
-5.115179538726806641e+00 2.764664173126220703e+00 1.194454288482666016e+01
5.019108057022094727e-01 -1.326963901519775391e+00 1.426751613616943359e+01
-5.408920764923095703e+00 2.074587821960449219e+00 1.259370326995849609e+01
-5.160601615905761719e+00 2.855493307113647461e+00 1.175647258758544922e+01
1.791237145662307739e-01 -8.213058710098266602e-01 1.443299007415771484e+01
-5.132102012634277344e+00 2.892645597457885742e+00 1.171139812469482422e+01
-3.402757167816162109e+00 -2.926144838333129883e+00 1.654357528686523438e+01
-3.715060234069824219e+00 -1.680722832679748535e-01 2.024096298217773438e+01
1.646951198577880859e+00 -8.201219439506530762e-01 2.048780441284179688e+01
-1.150114440917968750e+01 -4.567505836486816406e+00 2.562929153442382812e+01
-5.889039993286132812e+00 -3.170289797708392143e-03 1.521739101409912109e+01
-5.006360530853271484e+00 2.844522953033447266e+00 1.187279129028320312e+01
-3.533783674240112305e+00 -3.648165941238403320e+00 1.621621704101562500e+01
-3.080653190612792969e+00 -2.622464179992675781e+00 1.662543296813964844e+01
2.320047616958618164e+00 -1.831647872924804688e+00 1.998810195922851562e+01
2.321237325668334961e+00 -1.935752511024475098e+00 1.998810195922851562e+01
-8.090332984924316406e+00 -2.329635471105575562e-01 2.662440490722656250e+01
-6.725913047790527344e+00 1.187857426702976227e-02 1.478222656250000000e+01
3.902328491210937500e+00 -3.999353170394897461e+00 2.173350524902343750e+01
-1.101458168029785156e+01 -4.053722381591796875e+00 2.578664588928222656e+01
6.748726963996887207e-02 3.853989839553833008e-01 1.426146030426025391e+01
3.924528360366821289e-01 -3.404612243175506592e-01 1.408804988861083984e+01
1.017161980271339417e-01 -4.495604932308197021e-01 1.406446170806884766e+01
1.013140559196472168e+00 3.219448029994964600e-01 1.471747684478759766e+01
-1.019953441619873047e+01 -3.270186424255371094e+00 2.608695602416992188e+01
-1.152909660339355469e+01 -4.944104194641113281e+00 2.572741127014160156e+01
-1.041705417633056641e+01 -3.624031066894531250e+00 2.604651069641113281e+01
1.755050569772720337e-01 -1.327861905097961426e+00 1.414141368865966797e+01
-5.137191772460937500e+00 2.717041730880737305e+00 1.200428771972656250e+01
-8.326971054077148438e+00 -1.750207424163818359e+00 2.788381767272949219e+01
4.579560279846191406e+00 -3.349288463592529297e+00 2.173350524902343750e+01
-2.661516189575195312e+00 -3.395461082458496094e+00 1.622404670715332031e+01
7.777777910232543945e-01 -2.472361803054809570e+00 1.876046943664550781e+01
3.106837570667266846e-01 1.893162429332733154e-01 1.435897445678710938e+01
-3.400833845138549805e+00 7.778439521789550781e-01 2.001191139221191406e+01
5.975545048713684082e-01 -2.346092462539672852e+00 1.786283874511718750e+01
-1.141276001930236816e+00 1.289062500000000000e-01 2.187500000000000000e+01
2.967496812343597412e-01 -1.857323795557022095e-01 1.418319988250732422e+01
-6.565946102142333984e+00 -1.853992104530334473e+00 1.482135009765625000e+01
3.758951425552368164e+00 -3.544757127761840820e+00 2.148337554931640625e+01
6.465288996696472168e-01 -2.294647693634033203e+00 1.780604171752929688e+01
-1.143783092498779297e+00 -1.255156159400939941e+00 1.979964637756347656e+01
-1.254728078842163086e+00 -8.486997485160827637e-01 1.985815620422363281e+01
-1.851051092147827148e+00 -2.906906902790069580e-01 2.018017959594726562e+01
-1.410926342010498047e+00 -8.687648177146911621e-01 1.995249366760253906e+01
5.587489604949951172e-01 -2.510566413402557373e-01 1.420118331909179688e+01
-1.979505777359008789e+00 -1.428571492433547974e-01 2.025316429138183594e+01
-3.105524539947509766e+00 4.065797626972198486e-01 2.085661125183105469e+01
-3.680126190185546875e+00 -3.331230282783508301e-01 2.119873809814453125e+01
-2.679826736450195312e+00 -3.514684677124023438e+00 1.617717933654785156e+01
-5.588484182953834534e-02 7.883149981498718262e-01 1.422523307800292969e+01
-8.048528671264648438e+00 -2.848050892353057861e-01 2.673031044006347656e+01
-5.363569736480712891e+00 2.283143520355224609e+00 1.233933162689208984e+01
-5.637899398803710938e+00 3.045662045478820801e-01 1.534246540069580078e+01
4.291293144226074219e+00 -3.781049966812133789e+00 2.151088333129882812e+01
-8.178429603576660156e+00 -4.052339494228363037e-01 2.664551925659179688e+01
-2.424745559692382812e+00 -4.085699081420898438e+00 1.799678611755371094e+01
-9.440664291381835938e+00 -2.681962013244628906e+00 2.658227920532226562e+01
-6.689867973327636719e+00 -5.057268738746643066e-01 1.480176258087158203e+01
-3.550048589706420898e+00 -3.442176818847656250e+00 1.632653045654296875e+01
7.271944880485534668e-01 -1.117039561271667480e+00 1.445783138275146484e+01
1.024017453193664551e+00 -1.288209557533264160e-01 1.467248916625976562e+01
-6.495076179504394531e+00 -1.583258748054504395e+00 1.504028606414794922e+01
-9.960979461669921875e+00 -1.711553215980529785e+00 2.570772743225097656e+01
-1.047739505767822266e+01 -2.978543996810913086e+00 2.574712562561035156e+01
-9.456468582153320312e+00 -3.497152090072631836e+00 2.733930015563964844e+01
-2.919024467468261719e+00 -3.133170843124389648e+00 1.639024353027343750e+01
-5.145441532135009766e+00 2.614326953887939453e+00 1.215629482269287109e+01
-8.244028687477111816e-01 1.233053579926490784e-01 2.169141387939453125e+01
-9.422061920166015625e+00 -2.986410856246948242e+00 2.685851287841796875e+01
-3.947108268737792969e+00 -2.877904176712036133e+00 1.660899734497070312e+01
-6.653585910797119141e+00 1.673432588577270508e-01 1.515561580657958984e+01
-9.013137817382812500e+00 -6.607418656349182129e-01 2.596599769592285156e+01
-9.656525611877441406e+00 -3.461969614028930664e+00 2.690152168273925781e+01
-1.930204629898071289e+00 1.678700298070907593e-01 2.021660614013671875e+01
-6.452240943908691406e+00 -3.752829432487487793e-01 1.521050262451171875e+01
-9.545226097106933594e+00 -3.989112138748168945e+00 2.814070320129394531e+01
-1.037804889678955078e+01 -2.197408437728881836e+00 2.560975646972656250e+01
-6.444100856781005859e+00 -1.295625329017639160e+00 1.484754753112792969e+01
-1.978915691375732422e+00 3.716867566108703613e-01 2.024096298217773438e+01
-6.757588863372802734e+00 -2.903651632368564606e-02 1.478222656250000000e+01
-8.061191558837890625e+00 -7.190015912055969238e-01 2.705314064025878906e+01
3.316586256027221680e+00 -4.065382003784179688e+00 2.312456893920898438e+01
-7.510204315185546875e-01 -1.071720123291015625e+00 1.959183692932128906e+01
-6.421432018280029297e+00 -2.584421336650848389e-01 1.512832069396972656e+01
-2.864760160446166992e+00 -3.357246637344360352e+00 1.628696060180664062e+01
-7.892617225646972656e+00 -1.069630861282348633e+00 2.818791961669921875e+01
-4.790731430053710938e+00 2.986241817474365234e+00 1.216509819030761719e+01
1.228835940361022949e+00 2.363315671682357788e-01 1.481481456756591797e+01
-6.396825313568115234e+00 -2.331065833568572998e-01 1.523809528350830078e+01
-8.487629890441894531e+00 -1.228252172470092773e+00 2.681564331054687500e+01
-6.001767635345458984e+00 -5.108263492584228516e-01 1.484754753112792969e+01
-1.013960742950439453e+01 -3.673725605010986328e+00 2.635294151306152344e+01
-8.800959587097167969e+00 -1.849720239639282227e+00 2.685851287841796875e+01
-1.771719574928283691e+00 2.738166451454162598e-01 2.013181495666503906e+01
-8.501921653747558594e+00 8.362798094749450684e-01 2.582628822326660156e+01
3.565127611160278320e+00 -4.538938522338867188e+00 2.315644454956054688e+01
3.442761003971099854e-01 -1.224326610565185547e+00 1.414141368865966797e+01
-6.469423770904541016e+00 -9.898812174797058105e-01 1.478222656250000000e+01
-7.615916728973388672e+00 -6.176470518112182617e-01 2.906574440002441406e+01
-9.281369209289550781e+00 4.463878273963928223e-01 2.555133056640625000e+01
-9.727648735046386719e+00 -4.223509788513183594e+00 2.781456947326660156e+01
-4.772351741790771484e+00 2.883662462234497070e+00 1.206463241577148438e+01
-1.011363601684570312e+01 -4.639610290527343750e+00 2.727272796630859375e+01
-1.050405216217041016e+01 -5.306321144104003906e+00 2.722852516174316406e+01
-2.919914484024047852e+00 -2.788040637969970703e+00 1.793913459777832031e+01
-9.740144729614257812e+00 -3.777956485748291016e+00 2.703137588500976562e+01
-9.075829505920410156e+00 -1.943917870521545410e+00 2.654028511047363281e+01
-9.991439819335937500e+00 -3.014007806777954102e+00 2.614785957336425781e+01
-9.728355407714843750e+00 -3.382843494415283203e+00 2.668784713745117188e+01
-2.231614589691162109e-01 -1.019864797592163086e+00 1.420118331909179688e+01
-5.319217205047607422e+00 2.660142421722412109e+00 1.195729541778564453e+01
2.318263053894042969e+00 -1.709696650505065918e+00 1.998810195922851562e+01
-4.820269584655761719e+00 2.692672252655029297e+00 1.224936199188232422e+01
-6.410946846008300781e+00 -2.197397947311401367e+00 1.507402420043945312e+01
4.318932533264160156e+00 -4.438373565673828125e+00 2.134688758850097656e+01
-3.098409652709960938e+00 -2.486580610275268555e+00 1.669980049133300781e+01
-2.914038419723510742e+00 -5.083488225936889648e-01 2.077922058105468750e+01
3.552405536174774170e-01 6.722508668899536133e-01 1.443299007415771484e+01
-5.535933494567871094e+00 2.334416866302490234e+00 1.213434410095214844e+01
-3.543054580688476562e+00 1.294783204793930054e-01 2.111879348754882812e+01
-9.300837516784667969e+00 2.292460054159164429e-01 2.559025192260742188e+01
-1.063244533538818359e+01 -4.565830707550048828e+00 2.633228874206542969e+01
-9.789980888366699219e+00 1.276493310928344727e+00 3.236994171142578125e+01
-9.169342041015625000e+00 -2.652487993240356445e+00 2.696629142761230469e+01
-9.015994071960449219e+00 7.517136335372924805e-01 2.559025192260742188e+01
-6.766533374786376953e+00 -3.031513392925262451e-01 1.491344833374023438e+01
-9.422459602355957031e+00 -5.416348576545715332e-01 2.566844940185546875e+01
-9.447669982910156250e+00 -5.408709049224853516e-01 2.566844940185546875e+01
-8.500323295593261719e-01 2.617970407009124756e-01 2.171945762634277344e+01
-9.681962013244628906e+00 -3.147151947021484375e+00 2.658227920532226562e+01
-3.137006282806396484e+00 -3.254022359848022461e+00 1.638225173950195312e+01
-9.975708961486816406e+00 -4.328744888305664062e+00 2.720647811889648438e+01
-8.799826622009277344e+00 8.561525344848632812e-01 2.911611747741699219e+01
-1.179351091384887695e+00 -1.343952775001525879e+00 1.982300949096679688e+01
-9.191406250000000000e+00 -1.673437476158142090e+00 2.625000000000000000e+01
-6.248106956481933594e+00 9.398663789033889771e-02 1.496659278869628906e+01
-4.661906883120536804e-02 -5.489290356636047363e-01 1.411171817779541016e+01
-9.927272796630859375e+00 -2.787878811359405518e-01 2.545454597473144531e+01
-2.712823390960693359e+00 -3.376077651977539062e+00 1.810344886779785156e+01
1.151213169097900391e+00 -1.652946233749389648e+00 1.455805873870849609e+01
-2.940166711807250977e+00 -2.931829214096069336e+00 1.647866630554199219e+01
-1.064839458465576172e+01 -4.537979602813720703e+00 2.631166839599609375e+01
-8.908171653747558594e+00 -8.902723789215087891e-01 2.614785957336425781e+01
-6.208928585052490234e+00 -1.352232098579406738e+00 1.500000000000000000e+01
-1.695709586143493652e+00 4.825082421302795410e-01 2.217821693420410156e+01
-1.094683361053466797e+01 -5.060985088348388672e+00 2.627052307128906250e+01
-6.776600360870361328e+00 -7.015452384948730469e-01 1.483443737030029297e+01
4.539668932557106018e-02 -1.724650025367736816e+00 1.425540924072265625e+01
1.427814602851867676e+00 1.567328870296478271e-01 1.483443737030029297e+01
1.012173891067504883e+00 -1.798260927200317383e+00 1.460869598388671875e+01
-1.002481365203857422e+01 -4.755169391632080078e+00 2.779156303405761719e+01
3.126227140426635742e+00 -4.071528911590576172e+00 2.356241226196289062e+01
4.922680377960205078e+00 -3.793814420700073242e+00 2.164948463439941406e+01
-5.118878841400146484e+00 2.772178888320922852e+00 1.192335033416748047e+01
-8.227917671203613281e+00 -2.523659169673919678e-01 2.649842262268066406e+01
9.333333373069763184e-01 3.050108999013900757e-02 1.464052295684814453e+01
-3.299459934234619141e+00 -3.031909704208374023e+00 1.649484443664550781e+01
-9.853124618530273438e+00 -2.932031154632568359e+00 2.625000000000000000e+01
-2.351952902972698212e-02 -4.993700087070465088e-01 1.411171817779541016e+01
-2.197802253067493439e-02 4.027895033359527588e-01 1.420118331909179688e+01
-1.022188186645507812e+01 -2.283091068267822266e+00 2.570772743225097656e+01
3.703860938549041748e-01 4.412388503551483154e-01 1.425540924072265625e+01
-4.055389404296875000e+00 -2.578343391418457031e+00 1.676646614074707031e+01
-1.041956329345703125e+01 -5.093775272369384766e+00 2.716249084472656250e+01
9.943181872367858887e-01 6.993006914854049683e-02 1.468531513214111328e+01
-9.235518455505371094e+00 1.547256112098693848e-01 2.560975646972656250e+01
-5.514679908752441406e+00 5.177935957908630371e-01 1.494661903381347656e+01
-6.728470802307128906e+00 5.536027997732162476e-02 1.476274204254150391e+01
4.185353279113769531e+00 -3.007776975631713867e+00 2.177576065063476562e+01
-1.045933341979980469e+01 -3.668473958969116211e+00 2.602633666992187500e+01
-1.441473603248596191e+00 -5.638740062713623047e-01 1.996434974670410156e+01
-6.377005577087402344e+00 2.477718293666839600e-01 1.497326183319091797e+01
3.857083022594451904e-01 -4.676138758659362793e-01 1.404095268249511719e+01
-9.754399299621582031e+00 -1.355011463165283203e+00 2.570772743225097656e+01
-6.462443351745605469e+00 -3.452488780021667480e-01 1.520361995697021484e+01
-4.116267681121826172e+00 -2.610279560089111328e+00 1.676646614074707031e+01
1.281794428825378418e+00 -1.722996473312377930e+00 1.463414669036865234e+01
-9.503580093383789062e+00 -2.995226621627807617e+00 2.673031044006347656e+01
-7.516034841537475586e-01 -1.611078739166259766e+00 1.959183692932128906e+01
-3.018877029418945312e+00 -3.500483989715576172e+00 1.626331138610839844e+01
4.968340992927551270e-01 -2.422963231801986694e-01 1.418319988250732422e+01
3.377398848533630371e-01 7.420042902231216431e-02 1.432835865020751953e+01
5.972280502319335938e-01 -6.530869603157043457e-01 1.411171817779541016e+01
-2.312286645174026489e-01 -4.240614473819732666e-01 1.433447074890136719e+01
-4.754056930541992188e+00 2.846736431121826172e+00 1.211684131622314453e+01
-3.241071462631225586e+00 -2.588293552398681641e+00 1.666666603088378906e+01
3.570145130157470703e+00 -4.591568946838378906e+00 2.322045516967773438e+01
-2.873715162277221680e+00 -2.968183994293212891e+00 1.644640159606933594e+01
-3.037790775299072266e+00 -3.475775241851806641e+00 1.627906990051269531e+01
-1.645569652318954468e-01 -1.215611815452575684e+00 1.417721557617187500e+01
-1.008430480957031250e+01 1.543497800827026367e+00 3.013452911376953125e+01
-1.505945324897766113e+00 1.397146284580230713e-01 1.997621917724609375e+01
-3.813930749893188477e+00 -3.356064319610595703e+00 1.636629295349121094e+01
1.178130507469177246e+00 -1.453703761100769043e+00 1.481481456756591797e+01
-9.271680831909179688e+00 -6.707597970962524414e-01 2.578664588928222656e+01
-9.635933876037597656e+00 -2.888888835906982422e+00 2.647754096984863281e+01
-8.013513565063476562e+00 -1.860095411539077759e-01 2.670906257629394531e+01
-1.814525842666625977e+00 -7.274910211563110352e-01 2.016806793212890625e+01
-1.607632637023925781e+00 1.967799663543701172e-01 2.003577804565429688e+01
-5.779712200164794922e+00 1.850113511085510254e+00 1.271763801574707031e+01
-6.307962894439697266e+00 -7.443906664848327637e-01 1.478222656250000000e+01
-4.126184463500976562e+00 -2.789027452468872070e+00 1.675810432434082031e+01
-3.347181081771850586e+00 -2.745796203613281250e+00 1.661721038818359375e+01
3.667834520339965820e+00 -5.023125648498535156e+00 2.354590034484863281e+01
-6.415527343750000000e+00 -1.280988097190856934e+00 1.482135009765625000e+01
-1.087462043762207031e+01 8.407482147216796875e+00 3.397370910644531250e+01
-5.117181777954101562e+00 2.683321237564086914e+00 1.207764244079589844e+01
4.216181278228759766e+00 -3.099676370620727539e+00 2.174757194519042969e+01
-3.212903261184692383e+00 -2.559305191040039062e+00 1.667493820190429688e+01
-6.064757823944091797e+00 -1.514096975326538086e+00 1.480176258087158203e+01
-9.021276473999023438e+00 -2.810965538024902344e+00 2.749590873718261719e+01
-2.649079799652099609e+00 3.736196458339691162e-01 2.061349678039550781e+01
